0.204032 0.197101 -0.967412 255 255 255
-0.258091 0.192693 -0.982205 255 255 255
0.121380 0.064182 -0.819376 255 255 255
0.154812 0.064033 -0.819617 255 255 255
0.087431 0.063394 -0.818598 255 255 255
0.053595 0.062926 -0.819205 255 255 255
-0.047121 0.062722 -0.821810 255 255 255
0.187813 0.063164 -0.819793 255 255 255
0.019869 0.062695 -0.820241 255 255 255
-0.013366 0.061924 -0.819786 255 255 255
0.221361 0.061977 -0.820205 255 255 255
-0.113897 0.059469 -0.823400 255 255 255
-0.089680 0.059356 -0.822382 255 255 255
0.254933 0.060158 -0.821664 255 255 255
0.288418 0.057921 -0.823131 255 255 255
-0.148042 0.056169 -0.825478 255 255 255
0.155364 0.054242 -0.809586 255 255 255
0.188031 0.053735 -0.810195 255 255 255
0.053192 0.053120 -0.808619 255 255 255
0.322004 0.055154 -0.825528 255 255 255
-0.181712 0.053841 -0.828102 255 255 255
0.087108 0.052731 -0.807420 255 255 255
0.019017 0.051706 -0.808667 255 255 255
0.121307 0.051522 -0.806407 255 255 255
0.221305 0.051899 -0.810016 255 255 255
-0.013882 0.050683 -0.808466 255 255 255
-0.047085 0.050263 -0.809939 255 255 255
0.254961 0.050934 -0.811989 255 255 255
-0.214031 0.050330 -0.830894 255 255 255
-0.089872 0.048636 -0.810881 255 255 255
0.354871 0.050684 -0.829511 255 255 255
0.288966 0.049271 -0.814277 255 255 255
-0.112679 0.048169 -0.812702 255 255 255
-0.147285 0.046260 -0.815519 255 255 255
0.322423 0.047152 -0.817412 255 255 255
-0.247247 0.046333 -0.834870 255 255 255
0.387628 0.046335 -0.832094 255 255 255
0.188836 0.043352 -0.801844 255 255 255
-0.181388 0.043322 -0.817812 255 255 255
0.155091 0.042336 -0.799872 255 255 255
0.087311 0.041130 -0.797692 255 255 255
0.354392 0.043249 -0.821479 255 255 255
0.053053 0.040533 -0.797697 255 255 255
0.221785 0.040815 -0.801095 255 255 255
0.019703 0.039891 -0.798271 255 255 255
0.255705 0.040721 -0.803770 255 255 255
-0.280635 0.041506 -0.839048 255 255 255
0.122278 0.039784 -0.797257 255 255 255
-0.214575 0.039584 -0.820492 255 255 255
0.420847 0.041303 -0.835837 255 255 255
-0.013215 0.038101 -0.798667 255 255 255
0.290081 0.039035 -0.806223 255 255 255
-0.046549 0.037257 -0.799985 255 255 255
0.388557 0.039698 -0.825297 255 255 255
-0.089747 0.036306 -0.801483 255 255 255
0.323054 0.037053 -0.809469 255 255 255
-0.113439 0.035402 -0.803213 255 255 255
-0.247176 0.035999 -0.824479 255 255 255
-0.313561 0.035782 -0.843386 255 255 255
-0.146812 0.033045 -0.804837 255 255 255
0.355084 0.034130 -0.813471 255 255 255
0.421901 0.035157 -0.830309 255 255 255
0.389084 0.031923 -0.819389 255 255 255
-0.181013 0.029868 -0.807424 255 255 255
0.188895 0.029689 -0.793239 255 255 255
0.222201 0.029678 -0.794394 255 255 255
-0.280941 0.029754 -0.827579 255 255 255
0.256015 0.029000 -0.796529 255 255 255
0.156219 0.028567 -0.791452 255 255 255
-0.345590 0.029027 -0.848570 255 255 255
0.053381 0.026992 -0.789053 255 255 255
0.121802 0.027100 -0.789492 255 255 255
0.087716 0.026691 -0.788694 255 255 255
0.290659 0.027428 -0.799270 255 255 255
-0.214454 0.027052 -0.810862 255 255 255
0.020850 0.025931 -0.788656 255 255 255
0.422295 0.027622 -0.825214 255 255 255
0.324017 0.025588 -0.802896 255 255 255
-0.012655 0.024158 -0.790435 255 255 255
-0.247019 0.024491 -0.815575 255 255 255
-0.046174 0.023498 -0.791666 255 255 255
0.355391 0.024656 -0.807105 255 255 255
-0.313634 0.023579 -0.832065 255 255 255
-0.088924 0.021737 -0.792967 255 255 255
0.389697 0.022139 -0.814028 255 255 255
-0.113088 0.020097 -0.794280 255 255 255
-0.377841 0.021303 -0.854558 255 255 255
-0.144837 0.019293 -0.796983 255 255 255
-0.280387 0.019072 -0.819709 255 255 255
0.422648 0.019329 -0.820703 255 255 255
-0.345263 0.018766 -0.838804 255 255 255
0.222273 0.016410 -0.788421 255 255 255
-0.180946 0.015681 -0.799604 255 255 255
0.189975 0.015102 -0.786615 255 255 255
0.256149 0.015339 -0.790533 255 255 255
0.291464 0.015295 -0.794273 255 255 255
0.156559 0.014362 -0.785177 255 255 255
0.324593 0.014620 -0.798195 255 255 255
0.122162 0.013626 -0.783453 255 255 255
0.356059 0.014270 -0.802562 255 255 255
-0.314420 0.013601 -0.825310 255 255 255
-0.214846 0.013151 -0.803284 255 255 255
0.088459 0.012779 -0.782490 255 255 255
-0.410604 0.013398 -0.862820 255 255 255
0.054109 0.012038 -0.782125 255 255 255
0.389937 0.012596 -0.809812 255 255 255
-0.378749 0.011830 -0.845773 255 255 255
0.021757 0.010981 -0.781814 255 255 255
-0.247186 0.010535 -0.807762 255 255 255
0.422963 0.011168 -0.817035 255 255 255
-0.012743 0.009202 -0.783891 255 255 255
-0.346588 0.008239 -0.831682 255 255 255
-0.046057 0.007934 -0.785201 255 255 255
-0.280103 0.006265 -0.812593 255 255 255
-0.088593 0.006186 -0.786212 255 255 255
-0.112621 0.004446 -0.787727 255 255 255
0.325188 0.004717 -0.795238 255 255 255
-0.411962 0.004251 -0.854727 255 255 255
0.223141 0.003932 -0.784515 255 255 255
0.356856 0.004011 -0.799396 255 255 255
-0.440145 0.003575 -0.872676 255 255 255
0.291533 0.003169 -0.790885 255 255 255
0.423428 0.003446 -0.814408 255 255 255
-0.145270 0.002382 -0.790061 255 255 255
0.390508 0.003017 -0.806554 255 255 255
-0.379011 0.002151 -0.839090 255 255 255
0.256901 0.002555 -0.786927 255 255 255
-0.314263 0.001520 -0.818900 255 255 255
0.189996 0.001800 -0.782553 255 255 255
0.157166 0.000611 -0.780911 255 255 255
-0.179352 -0.000289 -0.792993 255 255 255
0.088620 -0.000151 -0.778523 255 255 255
0.054237 -0.000965 -0.778055 255 255 255
0.123004 -0.001844 -0.778693 255 255 255
-0.213637 -0.002736 -0.796698 255 255 255
-0.346962 -0.003572 -0.825774 255 255 255
0.021983 -0.003779 -0.777458 255 255 255
-0.441430 -0.005574 -0.864991 255 255 255
-0.246683 -0.005113 -0.801374 255 255 255
-0.411702 -0.006153 -0.848197 255 255 255
0.423476 -0.006035 -0.811980 255 255 255
0.390617 -0.006198 -0.804331 255 255 255
-0.012237 -0.006688 -0.778964 255 255 255
0.325564 -0.006546 -0.793129 255 255 255
-0.378898 -0.008529 -0.833882 255 255 255
0.357142 -0.007486 -0.797217 255 255 255
-0.279434 -0.009050 -0.806376 255 255 255
-0.044543 -0.008902 -0.780167 255 255 255
0.223586 -0.009526 -0.781932 255 255 255
0.291175 -0.009647 -0.789197 255 255 255
0.257465 -0.009886 -0.785055 255 255 255
-0.087640 -0.010306 -0.781548 255 255 255
-0.313860 -0.011874 -0.813550 255 255 255
-0.441310 -0.013464 -0.859773 255 255 255
-0.112412 -0.012171 -0.783112 255 255 255
-0.144518 -0.012461 -0.785888 255 255 255
-0.411265 -0.014502 -0.844351 255 255 255
0.423388 -0.013685 -0.810556 255 255 255
-0.346628 -0.015311 -0.821286 255 255 255
-0.179653 -0.014617 -0.789083 255 255 255
0.190002 -0.014844 -0.779654 255 255 255
-0.213539 -0.015834 -0.792987 255 255 255
0.157482 -0.015123 -0.778013 255 255 255
0.390873 -0.016215 -0.802864 255 255 255
0.089119 -0.015906 -0.775556 255 255 255
-0.246306 -0.017142 -0.797842 255 255 255
0.122809 -0.016382 -0.776118 255 255 255
0.054484 -0.017639 -0.775163 255 255 255
-0.377830 -0.019904 -0.829567 255 255 255
0.325642 -0.018919 -0.792393 255 255 255
-0.440991 -0.021426 -0.856026 255 255 255
0.357520 -0.019362 -0.796733 255 255 255
-0.279616 -0.021493 -0.803014 255 255 255
0.022672 -0.020160 -0.775130 255 255 255
-0.410567 -0.024246 -0.840705 255 255 255
0.258514 -0.021977 -0.784711 255 255 255
-0.011269 -0.022220 -0.776437 255 255 255
0.291520 -0.022898 -0.789063 255 255 255
0.423988 -0.023771 -0.810270 255 255 255
0.224400 -0.023903 -0.781265 255 255 255
-0.044051 -0.025167 -0.777712 255 255 255
-0.313311 -0.026969 -0.809657 255 255 255
-0.440620 -0.029523 -0.852884 255 255 255
-0.344740 -0.028336 -0.817326 255 255 255
0.391219 -0.027561 -0.803037 255 255 255
-0.087114 -0.027059 -0.779172 255 255 255
-0.111675 -0.028029 -0.780646 255 255 255
-0.378219 -0.030491 -0.826851 255 255 255
-0.143918 -0.029043 -0.783233 255 255 255
0.190776 -0.028562 -0.779041 255 255 255
0.357866 -0.030257 -0.797686 255 255 255
-0.178616 -0.030871 -0.786311 255 255 255
0.158050 -0.030443 -0.776842 255 255 255
-0.212341 -0.031752 -0.790189 255 255 255
-0.410169 -0.034410 -0.837919 255 255 255
-0.245135 -0.032959 -0.795016 255 255 255
0.325427 -0.032844 -0.793282 255 255 255
0.124363 -0.032561 -0.775597 255 255 255
0.090177 -0.032798 -0.775108 255 255 255
-0.440185 -0.037810 -0.850548 255 255 255
-0.278909 -0.035370 -0.800497 255 255 255
0.056353 -0.035464 -0.775030 255 255 255
0.291614 -0.036047 -0.788915 255 255 255
-0.312966 -0.039729 -0.807985 255 255 255
0.023311 -0.037922 -0.775254 255 255 255
-0.344832 -0.040809 -0.815432 255 255 255
0.259030 -0.038749 -0.786095 255 255 255
-0.377670 -0.042919 -0.824530 255 255 255
0.225245 -0.040017 -0.782861 255 255 255
-0.409631 -0.044868 -0.836214 255 255 255
-0.043250 -0.041127 -0.777470 255 255 255
-0.439586 -0.046460 -0.848998 255 255 255
0.190910 -0.042546 -0.780021 255 255 255
-0.111046 -0.044079 -0.780009 255 255 255
-0.143579 -0.044468 -0.782532 255 255 255
-0.086201 -0.044250 -0.778842 255 255 255
0.157836 -0.045577 -0.777379 255 255 255
-0.178306 -0.046666 -0.785392 255 255 255
-0.211611 -0.047675 -0.789599 255 255 255
-0.278429 -0.049989 -0.800382 255 255 255
0.125368 -0.047881 -0.777307 255 255 255
-0.244879 -0.050060 -0.794632 255 255 255
-0.438739 -0.054723 -0.848024 255 255 255
0.091473 -0.049548 -0.777090 255 255 255
-0.311338 -0.053134 -0.807617 255 255 255
-0.376437 -0.054916 -0.824327 255 255 255
-0.343590 -0.054109 -0.814840 255 255 255
-0.408741 -0.056009 -0.835757 255 255 255
0.057601 -0.051195 -0.777282 255 255 255
0.024240 -0.052924 -0.777547 255 255 255
-0.041839 -0.057861 -0.779537 255 255 255
-0.437449 -0.066392 -0.848790 255 255 255
-0.110253 -0.060284 -0.781511 255 255 255
-0.086266 -0.060078 -0.780591 255 255 255
-0.406964 -0.067104 -0.836171 255 255 255
-0.374885 -0.067180 -0.825442 255 255 255
-0.143428 -0.062931 -0.783794 255 255 255
-0.177045 -0.063738 -0.786378 255 255 255
-0.211145 -0.064962 -0.791449 255 255 255
-0.342536 -0.067765 -0.816589 255 255 255
-0.309649 -0.067184 -0.809023 255 255 255
-0.276540 -0.066722 -0.802644 255 255 255
-0.243783 -0.066410 -0.796733 255 255 255
0.225854 -0.159685 -0.646247 255 255 255
-0.235992 -0.179748 -0.653291 255 255 255
