-0.256933 0.246200 -0.938769 255 255 255
0.204481 0.232808 -0.952322 255 255 255
-0.087729 0.072302 -0.830533 255 255 255
-0.011401 0.072126 -0.832302 255 255 255
-0.146155 0.071402 -0.831330 255 255 255
0.055315 0.071500 -0.834943 255 255 255
-0.179827 0.070493 -0.833003 255 255 255
0.122781 0.070437 -0.838972 255 255 255
0.155997 0.069133 -0.841342 255 255 255
-0.212221 0.068648 -0.834884 255 255 255
0.188807 0.067332 -0.843727 255 255 255
-0.245610 0.066805 -0.837864 255 255 255
0.222140 0.065426 -0.846479 255 255 255
-0.279216 0.064187 -0.841265 255 255 255
0.255428 0.063125 -0.850322 255 255 255
-0.145277 0.058899 -0.824567 255 255 255
-0.110654 0.058859 -0.823616 255 255 255
-0.045127 0.058624 -0.823977 255 255 255
0.054979 0.058858 -0.827707 255 255 255
-0.312471 0.060453 -0.845638 255 255 255
-0.087826 0.058236 -0.823098 255 255 255
-0.011819 0.058002 -0.824544 255 255 255
0.288562 0.060194 -0.854602 255 255 255
-0.179422 0.057455 -0.825921 255 255 255
0.088726 0.056997 -0.828742 255 255 255
0.156596 0.056866 -0.834320 255 255 255
-0.212694 0.055364 -0.827801 255 255 255
0.189062 0.055601 -0.836981 255 255 255
0.321783 0.057101 -0.859600 255 255 255
0.122728 0.054427 -0.830065 255 255 255
-0.344811 0.056221 -0.850742 255 255 255
-0.245440 0.053833 -0.830807 255 255 255
0.222093 0.052836 -0.839323 255 255 255
0.354621 0.053483 -0.865595 255 255 255
0.255423 0.051440 -0.843595 255 255 255
-0.279464 0.049541 -0.833658 255 255 255
-0.377418 0.051188 -0.856877 255 255 255
0.289115 0.049364 -0.848455 255 255 255
0.322206 0.047168 -0.853889 255 255 255
0.386451 0.047879 -0.872688 255 255 255
-0.312483 0.045540 -0.837981 255 255 255
-0.111606 0.043861 -0.817709 255 255 255
0.021491 0.043838 -0.819876 255 255 255
-0.087922 0.043542 -0.817388 255 255 255
0.054699 0.043273 -0.821143 255 255 255
-0.410744 0.046431 -0.865561 255 255 255
-0.044840 0.043026 -0.817839 255 255 255
-0.144938 0.042870 -0.818245 255 255 255
-0.011538 0.042706 -0.818458 255 255 255
0.088787 0.042790 -0.822891 255 255 255
-0.344410 0.043528 -0.844179 255 255 255
0.354141 0.044062 -0.859817 255 255 255
-0.179206 0.041408 -0.819604 255 255 255
-0.212713 0.040426 -0.821956 255 255 255
-0.245409 0.040110 -0.825387 255 255 255
0.419252 0.042745 -0.879786 255 255 255
0.255987 0.039153 -0.838547 255 255 255
-0.378208 0.039476 -0.851259 255 255 255
-0.441102 0.040643 -0.875751 255 255 255
-0.279071 0.036952 -0.828949 255 255 255
0.322627 0.035149 -0.848900 255 255 255
-0.313395 0.033994 -0.834036 255 255 255
-0.411979 0.035329 -0.860363 255 255 255
0.420324 0.035397 -0.875913 255 255 255
0.354401 0.032654 -0.855096 255 255 255
-0.345853 0.031320 -0.840086 255 255 255
0.387810 0.030567 -0.864008 255 255 255
0.054788 0.027547 -0.816875 255 255 255
-0.143255 0.027266 -0.814215 255 255 255
-0.044711 0.027243 -0.813828 255 255 255
0.022366 0.027250 -0.815404 255 255 255
-0.442346 0.029674 -0.870761 255 255 255
-0.087370 0.026965 -0.813239 255 255 255
-0.011266 0.026832 -0.814473 255 255 255
-0.378601 0.028281 -0.847427 255 255 255
-0.111542 0.026416 -0.813312 255 255 255
-0.179439 0.025435 -0.815674 255 255 255
-0.213408 0.024840 -0.818155 255 255 255
0.420645 0.026833 -0.872602 255 255 255
-0.245867 0.024395 -0.821459 255 255 255
-0.279037 0.022500 -0.825519 255 255 255
-0.411988 0.023583 -0.856542 255 255 255
0.323413 0.022186 -0.845561 255 255 255
0.354408 0.021520 -0.851998 255 255 255
-0.313501 0.020464 -0.831003 255 255 255
-0.442289 0.020460 -0.867878 255 255 255
0.388316 0.019758 -0.860910 255 255 255
-0.346555 0.018237 -0.837349 255 255 255
-0.378851 0.016520 -0.844967 255 255 255
-0.411855 0.014432 -0.854747 255 255 255
0.055120 0.010958 -0.814692 255 255 255
0.022899 0.010694 -0.813257 255 255 255
-0.442250 0.011730 -0.866226 255 255 255
-0.011745 0.010419 -0.812470 255 255 255
-0.044999 0.010310 -0.811808 255 255 255
-0.087440 0.009904 -0.811226 255 255 255
0.323734 0.010200 -0.844067 255 255 255
0.354812 0.010157 -0.850426 255 255 255
-0.111489 0.009293 -0.811370 255 255 255
-0.144147 0.008876 -0.812086 255 255 255
0.388350 0.009356 -0.859284 255 255 255
-0.178288 0.007987 -0.813666 255 255 255
-0.245786 0.007337 -0.819580 255 255 255
-0.313473 0.005918 -0.829569 255 255 255
-0.278793 0.005842 -0.823820 255 255 255
-0.346593 0.005571 -0.836147 255 255 255
-0.378208 0.004254 -0.843697 255 255 255
-0.411491 0.003948 -0.853729 255 255 255
-0.442088 0.002987 -0.865452 255 255 255
0.355317 -0.000728 -0.850264 255 255 255
0.388621 -0.000899 -0.858884 255 255 255
0.054826 -0.002870 -0.814588 255 255 255
0.022629 -0.004902 -0.813279 255 255 255
-0.245794 -0.005393 -0.819715 255 255 255
-0.441960 -0.005715 -0.865610 255 255 255
-0.212966 -0.006327 -0.816370 255 255 255
-0.411398 -0.006714 -0.854016 255 255 255
-0.011628 -0.006457 -0.812674 255 255 255
-0.378921 -0.006793 -0.844131 255 255 255
-0.143870 -0.006776 -0.812211 255 255 255
-0.279343 -0.007182 -0.824337 255 255 255
-0.179079 -0.007059 -0.813932 255 255 255
-0.086977 -0.007495 -0.811420 255 255 255
-0.043924 -0.007484 -0.812024 255 255 255
-0.345105 -0.008257 -0.836217 255 255 255
-0.111797 -0.008164 -0.811662 255 255 255
0.420837 -0.009283 -0.868759 255 255 255
-0.313417 -0.009871 -0.830257 255 255 255
0.388404 -0.010448 -0.859505 255 255 255
0.355209 -0.012495 -0.851443 255 255 255
-0.441719 -0.014540 -0.866642 255 255 255
0.420469 -0.017034 -0.869741 255 255 255
-0.411244 -0.017352 -0.855503 255 255 255
-0.378685 -0.019481 -0.845921 255 255 255
0.088931 -0.019094 -0.818283 255 255 255
0.388255 -0.020533 -0.861213 255 255 255
0.054439 -0.019920 -0.816591 255 255 255
-0.345609 -0.020873 -0.838213 255 255 255
-0.279080 -0.021310 -0.826490 255 255 255
-0.441192 -0.022815 -0.868343 255 255 255
-0.245206 -0.021600 -0.821768 255 255 255
0.022708 -0.021541 -0.815520 255 255 255
-0.313583 -0.022741 -0.832477 255 255 255
-0.011216 -0.022265 -0.814989 255 255 255
0.355157 -0.024167 -0.854234 255 255 255
-0.178652 -0.023677 -0.816174 255 255 255
-0.143920 -0.023697 -0.814601 255 255 255
-0.044000 -0.023988 -0.814416 255 255 255
-0.111666 -0.024202 -0.813944 255 255 255
-0.087049 -0.024336 -0.813831 255 255 255
0.420584 -0.026777 -0.872459 255 255 255
-0.410901 -0.028321 -0.858399 255 255 255
0.388098 -0.031387 -0.864653 255 255 255
-0.378108 -0.031269 -0.849219 255 255 255
-0.440453 -0.033849 -0.872425 255 255 255
-0.344998 -0.033939 -0.841760 255 255 255
0.354989 -0.034392 -0.858288 255 255 255
-0.279263 -0.035487 -0.830761 255 255 255
-0.312629 -0.035897 -0.836139 255 255 255
0.089260 -0.035712 -0.822618 255 255 255
0.322797 -0.037140 -0.852847 255 255 255
-0.409531 -0.038804 -0.862355 255 255 255
0.055495 -0.037438 -0.821372 255 255 255
-0.144245 -0.038782 -0.818789 255 255 255
0.022521 -0.038917 -0.820380 255 255 255
-0.179024 -0.039184 -0.820308 255 255 255
-0.043929 -0.039594 -0.818751 255 255 255
-0.111750 -0.039881 -0.818195 255 255 255
-0.377188 -0.042828 -0.853953 255 255 255
-0.086907 -0.041059 -0.818442 255 255 255
-0.344714 -0.046767 -0.847188 255 255 255
-0.311655 -0.049141 -0.841544 255 255 255
-0.278468 -0.051163 -0.837513 255 255 255
0.089765 -0.051464 -0.829169 255 255 255
0.055987 -0.052245 -0.827674 255 255 255
0.022682 -0.053027 -0.826421 255 255 255
-0.178509 -0.055228 -0.826719 255 255 255
-0.111705 -0.055073 -0.824292 255 255 255
-0.043371 -0.055392 -0.825327 255 255 255
-0.144949 -0.056004 -0.825886 255 255 255
-0.087751 -0.055838 -0.824501 255 255 255
0.226642 -0.200414 -0.748967 255 255 255
-0.235265 -0.204289 -0.732307 255 255 255
-0.045137 0.073851 -0.832278 255 255 255
0.021704 0.072528 -0.834025 255 255 255
0.089019 0.070598 -0.836373 255 255 255
-0.111877 0.072718 -0.830956 255 255 255
0.020939 0.058557 -0.826055 255 255 255
0.189690 0.043193 -0.831663 255 255 255
0.156178 0.042554 -0.828196 255 255 255
0.222362 0.039480 -0.833886 255 255 255
0.123533 0.040322 -0.824606 255 255 255
0.290008 0.037134 -0.843467 255 255 255
0.189521 0.027464 -0.827064 255 255 255
0.222579 0.026766 -0.830434 255 255 255
0.256094 0.025715 -0.834806 255 255 255
0.157048 0.026740 -0.823886 255 255 255
0.290387 0.023890 -0.839929 255 255 255
0.122811 0.025764 -0.820746 255 255 255
0.088909 0.026132 -0.818470 255 255 255
0.420877 0.008739 -0.868682 255 255 255
0.290916 0.010706 -0.838286 255 255 255
0.222340 0.012179 -0.828323 255 255 255
0.255902 0.010757 -0.832727 255 255 255
0.190233 0.011334 -0.824831 255 255 255
0.157024 0.011132 -0.821753 255 255 255
0.122812 0.010909 -0.818831 255 255 255
0.089285 0.010787 -0.816546 255 255 255
0.421113 0.000529 -0.868315 255 255 255
0.324043 -0.000261 -0.843991 255 255 255
0.290645 -0.002019 -0.838271 255 255 255
0.222823 -0.001076 -0.828157 255 255 255
0.256256 -0.002709 -0.832763 255 255 255
0.189847 -0.002766 -0.824618 255 255 255
0.157185 -0.003486 -0.821578 255 255 255
0.089025 -0.002922 -0.816457 255 255 255
0.324051 -0.011795 -0.845162 255 255 255
-0.212640 0.007493 -0.816174 255 255 255
0.123139 -0.005508 -0.818806 255 255 255
0.289901 -0.014994 -0.839876 255 255 255
0.256369 -0.015352 -0.834416 255 255 255
0.222779 -0.014891 -0.829602 255 255 255
0.323650 -0.024005 -0.847984 255 255 255
0.189253 -0.019766 -0.826686 255 255 255
0.156940 -0.019625 -0.823389 255 255 255
0.122413 -0.020368 -0.820661 255 255 255
0.289710 -0.027938 -0.843357 255 255 255
0.256961 -0.027248 -0.837402 255 255 255
0.223001 -0.029079 -0.833005 255 255 255
0.189417 -0.033261 -0.830206 255 255 255
0.289195 -0.040480 -0.847660 255 255 255
0.156858 -0.034783 -0.826973 255 255 255
0.123258 -0.036276 -0.824901 255 255 255
-0.212364 -0.022623 -0.818445 255 255 255
0.123564 -0.050682 -0.830789 255 255 255
-0.212379 -0.038303 -0.822575 255 255 255
-0.245788 -0.038357 -0.826335 255 255 255
-0.212802 -0.054515 -0.829211 255 255 255
-0.245604 -0.053693 -0.832764 255 255 255
0.387376 0.039606 -0.867928 255 255 255
0.420772 0.017636 -0.870067 255 255 255
0.188921 -0.046445 -0.835280 255 255 255
0.223151 -0.044299 -0.838984 255 255 255
0.155962 -0.049157 -0.832069 255 255 255
0.256750 -0.043063 -0.843510 255 255 255
