0.119093 0.068425 -0.870884 255 255 255
0.150416 0.066663 -0.858798 255 255 255
0.181326 0.064324 -0.846907 255 255 255
0.087151 0.069101 -0.882963 255 255 255
0.024689 0.072091 -0.909606 255 255 255
-0.037183 0.075225 -0.936190 255 255 255
0.212873 0.061771 -0.835130 255 255 255
0.244841 0.058916 -0.824403 255 255 255
0.276858 0.055501 -0.814088 255 255 255
-0.098722 0.075410 -0.963407 255 255 255
-0.129794 0.074577 -0.978536 255 255 255
-0.159958 0.074394 -0.994289 255 255 255
0.147860 0.054291 -0.852441 255 255 255
0.178590 0.052453 -0.840954 255 255 255
0.209684 0.049118 -0.828908 255 255 255
0.052191 0.057900 -0.889728 255 255 255
0.241895 0.047179 -0.818485 255 255 255
0.083458 0.055512 -0.876283 255 255 255
0.020374 0.058153 -0.902775 255 255 255
0.115094 0.052386 -0.863064 255 255 255
-0.188860 0.073248 -1.009685 255 255 255
-0.010258 0.058403 -0.915298 255 255 255
-0.040769 0.059846 -0.929013 255 255 255
0.338756 0.038167 -0.791355 255 255 255
-0.218138 0.072041 -1.026659 255 255 255
-0.132041 0.062026 -0.972247 255 255 255
0.176891 0.039986 -0.836131 255 255 255
-0.247517 0.070150 -1.044004 255 255 255
0.144806 0.039963 -0.847322 255 255 255
0.207560 0.035757 -0.824041 255 255 255
0.273338 0.032308 -0.803747 255 255 255
-0.162761 0.061272 -0.987920 255 255 255
0.305382 0.029817 -0.794797 255 255 255
0.337024 0.026777 -0.787048 255 255 255
0.080882 0.041375 -0.871019 255 255 255
0.371167 0.024455 -0.780603 255 255 255
0.048951 0.042454 -0.883900 255 255 255
0.113404 0.038306 -0.857946 255 255 255
-0.192484 0.059908 -1.003646 255 255 255
0.018048 0.043573 -0.896898 255 255 255
-0.276115 0.067101 -1.062033 255 255 255
-0.012566 0.043293 -0.909835 255 255 255
-0.221195 0.059051 -1.020290 255 255 255
-0.043159 0.044333 -0.923577 255 255 255
-0.082793 0.045703 -0.941383 255 255 255
-0.104266 0.046415 -0.951846 255 255 255
0.238604 0.021418 -0.810619 255 255 255
0.272082 0.019052 -0.800658 255 255 255
0.335619 0.015656 -0.784371 255 255 255
0.206187 0.023053 -0.821028 255 255 255
0.370278 0.013527 -0.778006 255 255 255
0.304580 0.016812 -0.791739 255 255 255
-0.303642 0.063534 -1.080405 255 255 255
0.174650 0.024284 -0.832286 255 255 255
0.403768 0.011114 -0.772624 255 255 255
0.143629 0.024165 -0.843270 255 255 255
-0.251154 0.055430 -1.037396 255 255 255
0.110944 0.023812 -0.854866 255 255 255
-0.165353 0.045249 -0.982330 255 255 255
0.078916 0.024783 -0.867043 255 255 255
0.047002 0.026810 -0.879992 255 255 255
0.403204 0.002174 -0.771513 255 255 255
-0.195088 0.044996 -0.998586 255 255 255
0.016649 0.027125 -0.892267 255 255 255
0.369522 0.003099 -0.776788 255 255 255
0.335193 0.004294 -0.782937 255 255 255
-0.279607 0.052157 -1.055271 255 255 255
0.304107 0.004833 -0.790463 255 255 255
-0.223596 0.045357 -1.015541 255 255 255
-0.014193 0.027434 -0.906236 255 255 255
0.271753 0.005865 -0.799234 255 255 255
-0.044956 0.028586 -0.920037 255 255 255
0.237410 0.006491 -0.809074 255 255 255
-0.306269 0.050827 -1.074416 255 255 255
-0.084243 0.029152 -0.937580 255 255 255
0.174166 0.008206 -0.830114 255 255 255
-0.106253 0.029024 -0.948071 255 255 255
0.142522 0.008610 -0.841496 255 255 255
0.369470 -0.007123 -0.776473 255 255 255
-0.134849 0.030434 -0.962433 255 255 255
0.335427 -0.006569 -0.782689 255 255 255
0.109928 0.009017 -0.853187 255 255 255
0.304238 -0.005609 -0.790423 255 255 255
-0.334419 0.047574 -1.095028 255 255 255
0.078236 0.009502 -0.865201 255 255 255
-0.282223 0.040633 -1.052250 255 255 255
-0.167366 0.029306 -0.979123 255 255 255
0.271341 -0.006834 -0.799567 255 255 255
0.046139 0.010293 -0.877887 255 255 255
0.015979 0.010650 -0.890081 255 255 255
0.237577 -0.006942 -0.809122 255 255 255
-0.197463 0.029453 -0.995702 255 255 255
0.205091 -0.004720 -0.819123 255 255 255
0.369366 -0.016665 -0.777182 255 255 255
-0.015715 0.011069 -0.904724 255 255 255
-0.309469 0.038678 -1.071461 255 255 255
-0.225822 0.029674 -1.012413 255 255 255
0.335641 -0.018322 -0.783902 255 255 255
-0.046275 0.011673 -0.918524 255 255 255
0.304567 -0.017117 -0.791605 255 255 255
0.142386 -0.005953 -0.841344 255 255 255
-0.254470 0.028422 -1.030197 255 255 255
-0.085388 0.012151 -0.935890 255 255 255
-0.336511 0.036346 -1.091857 255 255 255
0.369753 -0.026751 -0.778778 255 255 255
0.271175 -0.019729 -0.801601 255 255 255
0.077758 -0.004148 -0.865283 255 255 255
-0.107240 0.011974 -0.946433 255 255 255
0.109963 -0.007357 -0.853053 255 255 255
0.045619 -0.003462 -0.877969 255 255 255
0.238205 -0.019537 -0.810706 255 255 255
-0.283716 0.027136 -1.049769 255 255 255
0.205448 -0.018490 -0.820520 255 255 255
0.305168 -0.029293 -0.794430 255 255 255
0.015521 -0.004884 -0.890320 255 255 255
-0.167351 0.011905 -0.977016 255 255 255
-0.363230 0.032386 -1.114307 255 255 255
-0.311363 0.025621 -1.069478 255 255 255
-0.197789 0.012160 -0.993766 255 255 255
-0.015843 -0.005749 -0.904878 255 255 255
0.173560 -0.022778 -0.832315 255 255 255
0.272257 -0.032631 -0.805006 255 255 255
0.142639 -0.022052 -0.843075 255 255 255
-0.337787 0.024572 -1.089973 255 255 255
-0.226732 0.012689 -1.010864 255 255 255
0.239836 -0.031401 -0.813342 255 255 255
0.109810 -0.022145 -0.854996 255 255 255
0.078169 -0.020258 -0.866983 255 255 255
-0.085137 -0.005187 -0.936008 255 255 255
-0.255174 0.011808 -1.028659 255 255 255
0.206867 -0.032630 -0.823634 255 255 255
-0.363841 0.023220 -1.112888 255 255 255
0.306238 -0.042418 -0.799368 255 255 255
-0.107648 -0.005427 -0.946935 255 255 255
0.045842 -0.020434 -0.880023 255 255 255
-0.284463 0.012637 -1.048586 255 255 255
-0.136664 -0.003481 -0.961198 255 255 255
-0.312023 0.012992 -1.068583 255 255 255
0.174954 -0.036260 -0.835405 255 255 255
0.016314 -0.021444 -0.892516 255 255 255
-0.386784 0.021163 -1.136245 255 255 255
-0.168156 -0.003069 -0.977644 255 255 255
-0.198183 -0.001581 -0.994158 255 255 255
-0.337809 0.012314 -1.088739 255 255 255
-0.226861 0.000021 -1.011045 255 255 255
0.241934 -0.047208 -0.819157 255 255 255
-0.363994 0.012739 -1.112000 255 255 255
-0.044849 -0.022555 -0.920629 255 255 255
-0.255699 -0.001166 -1.029337 255 255 255
0.080046 -0.036823 -0.870826 255 255 255
-0.387060 0.012428 -1.135581 255 255 255
-0.084436 -0.022061 -0.938358 255 255 255
-0.106812 -0.021475 -0.948965 255 255 255
-0.284342 -0.003093 -1.049254 255 255 255
-0.338456 0.001322 -1.089461 255 255 255
0.018035 -0.038683 -0.897233 255 255 255
-0.196997 -0.017822 -0.995811 255 255 255
-0.386995 0.003723 -1.135643 255 255 255
0.114574 -0.052488 -0.863696 255 255 255
-0.225686 -0.016120 -1.012698 255 255 255
-0.043167 -0.038107 -0.924587 255 255 255
-0.254878 -0.015292 -1.031034 255 255 255
0.083002 -0.052583 -0.876659 255 255 255
-0.283762 -0.015917 -1.051325 255 255 255
-0.082581 -0.038790 -0.942591 255 255 255
-0.105362 -0.037152 -0.952816 255 255 255
-0.337731 -0.011333 -1.091002 255 255 255
-0.363289 -0.008511 -1.113605 255 255 255
-0.166023 -0.035135 -0.983184 255 255 255
-0.195469 -0.033421 -0.999593 255 255 255
-0.253520 -0.029485 -1.034892 255 255 255
-0.224473 -0.032785 -1.017142 255 255 255
-0.361796 -0.019417 -1.116128 255 255 255
-0.281506 -0.029055 -1.054241 255 255 255
-0.308758 -0.026424 -1.073027 255 255 255
-0.132944 -0.052815 -0.973553 255 255 255
-0.163260 -0.051312 -0.988605 255 255 255
-0.193237 -0.049612 -1.005925 255 255 255
-0.221712 -0.048097 -1.023065 255 255 255
-0.250035 -0.045186 -1.040755 255 255 255
-0.278511 -0.042299 -1.058843 255 255 255
-0.306327 -0.039217 -1.077955 255 255 255
0.242794 0.233631 -0.935277 255 255 255
-0.183206 0.254565 -1.120483 255 255 255
-0.006363 0.072527 -0.921971 255 255 255
0.055779 0.070487 -0.896103 255 255 255
-0.076704 0.074320 -0.953030 255 255 255
-0.100824 0.061420 -0.956534 255 255 255
0.309229 0.051922 -0.804442 255 255 255
-0.080203 0.060370 -0.946321 255 255 255
0.341699 0.047658 -0.796187 255 255 255
0.274642 0.044579 -0.808448 255 255 255
-0.331045 0.059258 -1.099760 255 255 255
0.373657 0.041947 -0.788644 255 255 255
0.307127 0.041872 -0.799305 255 255 255
-0.358071 0.055354 -1.121579 255 255 255
-0.134565 0.046025 -0.966498 255 255 255
0.406406 0.036614 -0.780978 255 255 255
0.240209 0.034851 -0.813842 255 255 255
0.372402 0.033594 -0.784043 255 255 255
-0.381393 0.050025 -1.143926 255 255 255
-0.252899 0.042839 -1.033130 255 255 255
-0.361631 0.044257 -1.117463 255 255 255
0.405721 0.029074 -0.777359 255 255 255
-0.384843 0.039082 -1.140093 255 255 255
0.404637 0.020407 -0.774584 255 255 255
-0.386090 0.029916 -1.137577 255 255 255
-0.136763 0.012115 -0.961089 255 255 255
0.204906 0.008508 -0.819388 255 255 255
-0.363948 0.002100 -1.112255 255 255 255
-0.310825 -0.000821 -1.068053 255 255 255
-0.386464 -0.005101 -1.136503 255 255 255
-0.045512 -0.006110 -0.918355 255 255 255
0.173521 -0.005833 -0.830165 255 255 255
0.403138 -0.006052 -0.771181 255 255 255
-0.385390 -0.013388 -1.137750 255 255 255
-0.310677 -0.013391 -1.070072 255 255 255
-0.167101 -0.019635 -0.979462 255 255 255
0.402902 -0.015891 -0.771768 255 255 255
-0.135983 -0.020331 -0.963326 255 255 255
-0.335796 -0.023017 -1.093908 255 255 255
-0.383112 -0.024459 -1.141277 255 255 255
-0.014779 -0.021515 -0.906809 255 255 255
-0.359087 -0.029984 -1.119174 255 255 255
0.402839 -0.023668 -0.772824 255 255 255
-0.333152 -0.034619 -1.097786 255 255 255
-0.134842 -0.035425 -0.967075 255 255 255
0.336563 -0.029974 -0.786594 255 255 255
0.048633 -0.037863 -0.884105 255 255 255
0.403953 -0.033481 -0.775251 255 255 255
0.143742 -0.037230 -0.846175 255 255 255
0.112083 -0.038047 -0.858432 255 255 255
0.370879 -0.037651 -0.782025 255 255 255
0.337955 -0.040227 -0.790411 255 255 255
-0.103021 -0.052417 -0.958397 255 255 255
0.273221 -0.045303 -0.808771 255 255 255
-0.080999 -0.053583 -0.948578 255 255 255
0.209291 -0.047819 -0.829223 255 255 255
-0.040079 -0.053846 -0.930468 255 255 255
0.020627 -0.052668 -0.902963 255 255 255
0.176353 -0.049502 -0.840154 255 255 255
0.051583 -0.052560 -0.889909 255 255 255
0.144745 -0.051674 -0.851038 255 255 255
-0.257920 -0.200494 -0.926886 255 255 255
0.169632 -0.204125 -0.744239 255 255 255
