0.207700 0.194866 -1.000503 255 255 255
-0.254110 0.185683 -1.004697 255 255 255
0.129132 0.063701 -0.850367 255 255 255
0.162488 0.063650 -0.851365 255 255 255
0.095268 0.062730 -0.848856 255 255 255
0.195435 0.063081 -0.852174 255 255 255
0.061485 0.062108 -0.848684 255 255 255
0.228928 0.062305 -0.853257 255 255 255
0.027805 0.061513 -0.849011 255 255 255
0.262421 0.060878 -0.855352 255 255 255
-0.039123 0.059996 -0.849483 255 255 255
-0.005342 0.059968 -0.848102 255 255 255
0.295818 0.058731 -0.857662 255 255 255
-0.081676 0.056634 -0.848651 255 255 255
-0.105826 0.055762 -0.849713 255 255 255
0.329313 0.056240 -0.860695 255 255 255
0.163326 0.053823 -0.841319 255 255 255
0.195931 0.053655 -0.842555 255 255 255
0.061402 0.052044 -0.838244 255 255 255
0.095268 0.051822 -0.837827 255 255 255
0.229151 0.052195 -0.843032 255 255 255
-0.140004 0.052471 -0.850702 255 255 255
0.129425 0.050828 -0.837486 255 255 255
0.262684 0.051518 -0.845752 255 255 255
0.362492 0.052865 -0.864631 255 255 255
0.027323 0.050347 -0.837515 255 255 255
0.296605 0.050047 -0.848832 255 255 255
-0.005472 0.048592 -0.836790 255 255 255
-0.173571 0.049396 -0.852912 255 255 255
-0.038745 0.047645 -0.837422 255 255 255
0.329951 0.048278 -0.852529 255 255 255
-0.081452 0.045310 -0.837607 255 255 255
0.394796 0.047461 -0.868857 255 255 255
-0.104282 0.044540 -0.838904 255 255 255
-0.205797 0.045459 -0.855048 255 255 255
0.362209 0.045383 -0.856558 255 255 255
0.196944 0.043253 -0.834111 255 255 255
0.163341 0.041787 -0.831595 255 255 255
-0.138854 0.042411 -0.840758 255 255 255
0.229843 0.040929 -0.834199 255 255 255
0.263640 0.041157 -0.837589 255 255 255
0.095769 0.039904 -0.828313 255 255 255
0.428050 0.042705 -0.873161 255 255 255
0.061585 0.039040 -0.827641 255 255 255
-0.238970 0.041105 -0.858282 255 255 255
0.297907 0.039747 -0.840764 255 255 255
0.130673 0.038912 -0.828404 255 255 255
0.395911 0.040899 -0.862006 255 255 255
0.028306 0.038121 -0.827476 255 255 255
-0.172875 0.038867 -0.842536 255 255 255
0.330777 0.038164 -0.844510 255 255 255
-0.004661 0.035761 -0.826819 255 255 255
-0.037956 0.034492 -0.827321 255 255 255
0.362861 0.035769 -0.848943 255 255 255
0.429260 0.036676 -0.867513 255 255 255
-0.272323 0.035948 -0.861659 255 255 255
-0.205985 0.034666 -0.844624 255 255 255
-0.081076 0.032858 -0.828161 255 255 255
0.396648 0.033315 -0.855856 255 255 255
-0.104754 0.031771 -0.829233 255 255 255
0.230502 0.029744 -0.827444 255 255 255
0.197319 0.029484 -0.825472 255 255 255
-0.238539 0.030674 -0.847923 255 255 255
0.264216 0.029349 -0.830371 255 255 255
-0.138020 0.028881 -0.830348 255 255 255
0.164762 0.027927 -0.823134 255 255 255
0.298743 0.028070 -0.833805 255 255 255
0.429850 0.029344 -0.862133 255 255 255
-0.305190 0.029408 -0.865702 255 255 255
0.130466 0.026063 -0.820701 255 255 255
0.332015 0.026702 -0.837810 255 255 255
0.062231 0.025272 -0.819142 255 255 255
0.096484 0.025270 -0.819460 255 255 255
0.363250 0.025987 -0.842924 255 255 255
-0.172167 0.025310 -0.832144 255 255 255
0.029779 0.023687 -0.818460 255 255 255
0.397512 0.023791 -0.850023 255 255 255
-0.272229 0.024003 -0.850348 255 255 255
-0.003822 0.021741 -0.818596 255 255 255
-0.205543 0.022018 -0.834970 255 255 255
-0.037287 0.020558 -0.819132 255 255 255
-0.337140 0.022318 -0.870192 255 255 255
0.430331 0.021141 -0.857379 255 255 255
-0.238096 0.019084 -0.838974 255 255 255
-0.079943 0.018227 -0.819598 255 255 255
0.230839 0.016406 -0.821416 255 255 255
-0.104077 0.016355 -0.820245 255 255 255
-0.304876 0.017292 -0.854232 255 255 255
0.299794 0.015940 -0.828683 255 255 255
0.264618 0.015629 -0.824321 255 255 255
0.332801 0.015680 -0.833116 255 255 255
-0.135787 0.015194 -0.822197 255 255 255
0.364108 0.015585 -0.838322 255 255 255
0.198676 0.014771 -0.818861 255 255 255
0.165369 0.013637 -0.816777 255 255 255
0.397931 0.014275 -0.845665 255 255 255
0.131075 0.012456 -0.814720 255 255 255
-0.271443 0.013303 -0.842379 255 255 255
-0.369318 0.014215 -0.875460 255 255 255
0.430768 0.012986 -0.853659 255 255 255
0.097487 0.011221 -0.813325 255 255 255
-0.171830 0.011130 -0.824041 255 255 255
-0.336466 0.012036 -0.860382 255 255 255
0.063242 0.010117 -0.812399 255 255 255
0.030996 0.008572 -0.811739 255 255 255
-0.205678 0.008165 -0.827094 255 255 255
-0.305429 0.007316 -0.847320 255 255 255
-0.003647 0.006622 -0.812139 255 255 255
0.333568 0.005731 -0.830169 255 255 255
0.365079 0.005279 -0.835145 255 255 255
-0.237986 0.005155 -0.830906 255 255 255
-0.036891 0.004941 -0.812533 255 255 255
0.431343 0.005249 -0.851053 255 255 255
0.398631 0.004618 -0.842484 255 255 255
-0.402089 0.005644 -0.883196 255 255 255
0.231914 0.003842 -0.817573 255 255 255
0.300081 0.003779 -0.825195 255 255 255
-0.369845 0.004558 -0.866815 255 255 255
0.265567 0.002793 -0.820643 255 255 255
-0.079314 0.002531 -0.812943 255 255 255
0.198918 0.001383 -0.814739 255 255 255
-0.337529 0.001453 -0.853149 255 255 255
-0.103318 0.000587 -0.813648 255 255 255
-0.270882 0.000483 -0.835126 255 255 255
0.166193 -0.000222 -0.812521 255 255 255
0.097844 -0.001817 -0.809410 255 255 255
-0.135923 -0.001799 -0.815114 255 255 255
0.063571 -0.003027 -0.808442 255 255 255
0.132151 -0.003149 -0.810092 255 255 255
0.431514 -0.004273 -0.848765 255 255 255
0.398849 -0.004674 -0.840414 255 255 255
-0.305028 -0.004752 -0.840701 255 255 255
-0.169953 -0.004872 -0.817276 255 255 255
-0.431662 -0.004380 -0.892183 255 255 255
-0.369864 -0.005125 -0.860075 255 255 255
0.334126 -0.005595 -0.828109 255 255 255
0.365535 -0.006278 -0.833008 255 255 255
0.031425 -0.006292 -0.807412 255 255 255
-0.204186 -0.007769 -0.820376 255 255 255
0.299957 -0.009080 -0.823216 255 255 255
-0.002766 -0.009484 -0.807565 255 255 255
0.232544 -0.009716 -0.815114 255 255 255
0.266310 -0.009708 -0.818750 255 255 255
-0.337719 -0.010306 -0.846960 255 255 255
-0.237197 -0.010563 -0.824415 255 255 255
0.431519 -0.011966 -0.847498 255 255 255
-0.035027 -0.012018 -0.807738 255 255 255
-0.432668 -0.013536 -0.884428 255 255 255
-0.402633 -0.013823 -0.868315 255 255 255
-0.078069 -0.014064 -0.808298 255 255 255
0.399204 -0.014763 -0.839188 255 255 255
-0.269935 -0.014894 -0.828842 255 255 255
-0.369642 -0.015700 -0.854535 255 255 255
0.166736 -0.016089 -0.809656 255 255 255
-0.102819 -0.016137 -0.809071 255 255 255
-0.134929 -0.016720 -0.810883 255 255 255
0.334352 -0.018034 -0.827430 255 255 255
0.366086 -0.018196 -0.832442 255 255 255
-0.304389 -0.018203 -0.835311 255 255 255
0.098550 -0.017704 -0.806586 255 255 255
0.132168 -0.017824 -0.807651 255 255 255
-0.170028 -0.019300 -0.813336 255 255 255
0.064023 -0.019823 -0.805602 255 255 255
-0.432301 -0.021522 -0.879165 255 255 255
-0.203862 -0.020979 -0.816724 255 255 255
-0.402130 -0.022085 -0.864164 255 255 255
0.432200 -0.022041 -0.847322 255 255 255
-0.337217 -0.022046 -0.842329 255 255 255
0.267531 -0.021850 -0.818324 255 255 255
0.300453 -0.022398 -0.822968 255 255 255
-0.236612 -0.022703 -0.820996 255 255 255
0.032326 -0.022748 -0.804938 255 255 255
0.233526 -0.024166 -0.814430 255 255 255
0.399662 -0.026111 -0.839453 255 255 255
-0.001561 -0.025152 -0.805316 255 255 255
-0.368469 -0.027013 -0.849938 255 255 255
-0.269875 -0.027454 -0.825674 255 255 255
-0.431914 -0.029422 -0.875212 255 255 255
0.366528 -0.029111 -0.833475 255 255 255
-0.034274 -0.028399 -0.805410 255 255 255
-0.401303 -0.031793 -0.860324 255 255 255
-0.077292 -0.030822 -0.805901 255 255 255
0.334247 -0.031974 -0.828523 255 255 255
0.167485 -0.031519 -0.808656 255 255 255
-0.101861 -0.032054 -0.806744 255 255 255
-0.303568 -0.033412 -0.831545 255 255 255
-0.134098 -0.033458 -0.808355 255 255 255
-0.335087 -0.035144 -0.838491 255 255 255
0.133902 -0.034092 -0.807104 255 255 255
0.099802 -0.034698 -0.806025 255 255 255
0.300662 -0.035585 -0.823274 255 255 255
-0.431367 -0.037536 -0.872032 255 255 255
-0.168752 -0.035689 -0.810762 255 255 255
-0.368646 -0.037671 -0.847252 255 255 255
-0.202421 -0.037022 -0.814138 255 255 255
0.066076 -0.037761 -0.805323 255 255 255
0.268213 -0.038649 -0.819784 255 255 255
-0.235190 -0.038649 -0.818414 255 255 255
-0.400699 -0.042014 -0.857595 255 255 255
0.234546 -0.040331 -0.815957 255 255 255
-0.268894 -0.041473 -0.823691 255 255 255
0.033134 -0.040627 -0.804816 255 255 255
-0.430809 -0.045856 -0.869705 255 255 255
0.200359 -0.043243 -0.812476 255 255 255
-0.033313 -0.044443 -0.805189 255 255 255
-0.303054 -0.046277 -0.830034 255 255 255
-0.334936 -0.047726 -0.836847 255 255 255
0.167439 -0.046704 -0.809348 255 255 255
-0.367767 -0.050227 -0.845412 255 255 255
-0.101054 -0.048170 -0.806354 255 255 255
-0.076199 -0.048055 -0.805660 255 255 255
-0.133571 -0.048988 -0.807992 255 255 255
-0.399982 -0.052556 -0.856044 255 255 255
0.135072 -0.049471 -0.808620 255 255 255
-0.430109 -0.054541 -0.868202 255 255 255
-0.168246 -0.051602 -0.810239 255 255 255
0.101254 -0.051515 -0.807855 255 255 255
-0.201530 -0.053064 -0.813683 255 255 255
0.067463 -0.053574 -0.807320 255 255 255
-0.268253 -0.056164 -0.823678 255 255 255
-0.234788 -0.055883 -0.818114 255 255 255
0.034177 -0.055731 -0.806799 255 255 255
-0.301322 -0.059760 -0.829798 255 255 255
-0.333544 -0.061097 -0.836578 255 255 255
-0.366435 -0.062301 -0.845445 255 255 255
-0.398931 -0.063765 -0.855782 255 255 255
-0.031782 -0.061285 -0.807126 255 255 255
-0.076137 -0.063913 -0.807377 255 255 255
-0.100103 -0.064387 -0.807907 255 255 255
-0.133234 -0.067461 -0.809724 255 255 255
-0.166778 -0.068663 -0.811701 255 255 255
-0.427687 -0.074509 -0.868263 255 255 255
-0.200933 -0.070397 -0.815541 255 255 255
-0.396932 -0.074809 -0.856606 255 255 255
-0.364755 -0.074569 -0.846717 255 255 255
-0.266417 -0.072965 -0.825692 255 255 255
-0.233609 -0.072288 -0.820017 255 255 255
-0.299531 -0.073835 -0.831227 255 255 255
-0.332424 -0.074806 -0.838229 255 255 255
0.240563 -0.164574 -0.684782 255 255 255
-0.220559 -0.189372 -0.681214 255 255 255
-0.403061 -0.003578 -0.875145 255 255 255
0.199165 -0.015404 -0.811928 255 255 255
0.200078 -0.029222 -0.811438 255 255 255
-0.429106 -0.062855 -0.867416 255 255 255
