-0.307604 0.224998 -0.973045 255 255 255
0.117881 0.248118 -1.149317 255 255 255
0.125204 0.082773 -1.031343 255 255 255
0.095031 0.081482 -1.017313 255 255 255
0.155033 0.083521 -1.045185 255 255 255
0.185234 0.084189 -1.059573 255 255 255
0.064529 0.079043 -1.002869 255 255 255
0.033600 0.077299 -0.989557 255 255 255
0.214999 0.084456 -1.075003 255 255 255
0.002566 0.075682 -0.976729 255 255 255
0.244535 0.084074 -1.090785 255 255 255
-0.059070 0.071932 -0.951236 255 255 255
-0.027571 0.072780 -0.963300 255 255 255
0.273884 0.083539 -1.107300 255 255 255
0.302549 0.082418 -1.124649 255 255 255
-0.097949 0.067077 -0.934508 255 255 255
-0.120567 0.065634 -0.926227 255 255 255
0.129203 0.070766 -1.025177 255 255 255
0.158573 0.072003 -1.039151 255 255 255
0.330088 0.079269 -1.142556 255 255 255
0.188710 0.071829 -1.053080 255 255 255
0.218306 0.072982 -1.068901 255 255 255
-0.152481 0.061595 -0.914429 255 255 255
0.248081 0.073477 -1.085409 255 255 255
0.277085 0.073812 -1.102258 255 255 255
0.036862 0.064892 -0.982811 255 255 255
0.068047 0.065681 -0.995797 255 255 255
0.099408 0.065770 -1.009186 255 255 255
0.358536 0.076781 -1.160796 255 255 255
0.304903 0.073130 -1.119226 255 255 255
0.005808 0.061929 -0.969140 255 255 255
-0.184303 0.058034 -0.903970 255 255 255
-0.024094 0.058897 -0.956076 255 255 255
-0.054903 0.056971 -0.943719 255 255 255
-0.214937 0.053662 -0.894166 255 255 255
0.361455 0.069610 -1.157687 255 255 255
0.162046 0.059849 -1.034622 255 255 255
-0.094263 0.053296 -0.927666 255 255 255
0.221618 0.060930 -1.064561 255 255 255
-0.115734 0.052116 -0.920019 255 255 255
0.251673 0.061512 -1.081255 255 255 255
0.280217 0.062026 -1.097945 255 255 255
0.191965 0.058713 -1.048296 255 255 255
0.132140 0.056659 -1.019516 255 255 255
-0.246910 0.049169 -0.885098 255 255 255
0.307743 0.061923 -1.115086 255 255 255
-0.148294 0.049393 -0.908613 255 255 255
0.335825 0.062367 -1.135204 255 255 255
0.071341 0.051741 -0.990518 255 255 255
0.363589 0.061195 -1.154919 255 255 255
0.103230 0.051972 -1.004568 255 255 255
0.040211 0.049590 -0.976733 255 255 255
-0.180399 0.045261 -0.897695 255 255 255
-0.279147 0.043896 -0.876303 255 255 255
0.009722 0.047550 -0.963713 255 255 255
-0.020411 0.043935 -0.950702 255 255 255
-0.211808 0.040580 -0.887541 255 255 255
0.309741 0.050949 -1.112329 255 255 255
0.338236 0.051737 -1.132668 255 255 255
0.224111 0.047699 -1.061305 255 255 255
0.254317 0.048485 -1.078300 255 255 255
0.283157 0.049299 -1.095296 255 255 255
-0.051189 0.041688 -0.938304 255 255 255
0.365298 0.052098 -1.152813 255 255 255
0.194398 0.046206 -1.045312 255 255 255
0.164768 0.044351 -1.030489 255 255 255
-0.311281 0.037504 -0.868563 255 255 255
-0.091138 0.038854 -0.922506 255 255 255
-0.243206 0.036461 -0.878697 255 255 255
-0.113304 0.037295 -0.914378 255 255 255
0.135742 0.041156 -1.016003 255 255 255
0.105110 0.037576 -1.000857 255 255 255
-0.144399 0.033661 -0.902981 255 255 255
0.366568 0.043300 -1.151698 255 255 255
0.339646 0.041461 -1.131309 255 255 255
0.074381 0.035350 -0.986610 255 255 255
0.311579 0.039751 -1.111127 255 255 255
0.043105 0.034116 -0.972904 255 255 255
-0.342808 0.030706 -0.861780 255 255 255
0.284929 0.037470 -1.094150 255 255 255
-0.275499 0.029500 -0.869282 255 255 255
-0.176641 0.029516 -0.892073 255 255 255
0.013500 0.031310 -0.959964 255 255 255
0.256424 0.035499 -1.077135 255 255 255
0.225853 0.032912 -1.059482 255 255 255
0.196098 0.031787 -1.043414 255 255 255
-0.017443 0.028306 -0.947229 255 255 255
-0.208548 0.025911 -0.882289 255 255 255
-0.048384 0.026149 -0.934779 255 255 255
0.167526 0.028482 -1.028814 255 255 255
0.340845 0.031332 -1.131142 255 255 255
-0.374885 0.023103 -0.855827 255 255 255
-0.307373 0.022884 -0.861549 255 255 255
0.312972 0.029017 -1.111249 255 255 255
0.137741 0.025740 -1.014155 255 255 255
0.286072 0.027140 -1.094294 255 255 255
0.107006 0.022913 -0.999195 255 255 255
-0.110280 0.020123 -0.910498 255 255 255
-0.339081 0.018298 -0.855910 255 255 255
0.257183 0.022867 -1.077156 255 255 255
-0.140156 0.018440 -0.900023 255 255 255
0.076669 0.020231 -0.985069 255 255 255
-0.272425 0.017154 -0.865159 255 255 255
0.341184 0.021843 -1.131708 255 255 255
0.045549 0.017772 -0.971127 255 255 255
0.197674 0.018701 -1.043557 255 255 255
-0.408540 0.015642 -0.852021 255 255 255
0.016125 0.015023 -0.958280 255 255 255
-0.174159 0.013763 -0.888491 255 255 255
0.313387 0.017328 -1.112418 255 255 255
0.367863 0.017677 -1.152730 255 255 255
0.168386 0.014497 -1.028592 255 255 255
0.286573 0.015694 -1.095486 255 255 255
-0.372685 0.011551 -0.850406 255 255 255
-0.305883 0.011464 -0.857672 255 255 255
-0.015850 0.012054 -0.945342 255 255 255
-0.206582 0.010506 -0.878679 255 255 255
-0.046562 0.009395 -0.932963 255 255 255
0.341256 0.011803 -1.133318 255 255 255
0.256941 0.009934 -1.078508 255 255 255
-0.439888 0.007298 -0.850791 255 255 255
-0.337998 0.006189 -0.851727 255 255 255
0.077579 0.006642 -0.984984 255 255 255
0.108665 0.006684 -0.999403 255 255 255
-0.085770 0.005720 -0.917264 255 255 255
0.227771 0.007063 -1.061487 255 255 255
0.367818 0.007945 -1.155343 255 255 255
-0.406957 0.004656 -0.846816 255 255 255
0.198230 0.004993 -1.044999 255 255 255
0.046442 0.004066 -0.971032 255 255 255
-0.108145 0.003223 -0.908870 255 255 255
0.286163 0.003514 -1.098078 255 255 255
-0.370770 0.000492 -0.846827 255 255 255
-0.138744 0.000214 -0.897932 255 255 255
0.340766 0.000944 -1.136521 255 255 255
0.017134 -0.000439 -0.958322 255 255 255
-0.303807 -0.001869 -0.854953 255 255 255
0.168492 -0.002428 -1.030405 255 255 255
0.256558 -0.002977 -1.081786 255 255 255
-0.170957 -0.003364 -0.887201 255 255 255
-0.438402 -0.003567 -0.845793 255 255 255
0.312497 -0.004551 -1.118870 255 255 255
-0.014436 -0.004652 -0.945680 255 255 255
0.139607 -0.004764 -1.015828 255 255 255
0.228204 -0.004729 -1.064573 255 255 255
-0.203744 -0.006555 -0.877270 255 255 255
-0.336596 -0.006761 -0.849060 255 255 255
-0.404628 -0.006933 -0.843420 255 255 255
0.108558 -0.008119 -1.000938 255 255 255
-0.044198 -0.008147 -0.933685 255 255 255
0.198363 -0.009102 -1.048351 255 255 255
0.284653 -0.009659 -1.102459 255 255 255
0.078165 -0.009412 -0.986754 255 255 255
-0.083999 -0.011463 -0.917763 255 255 255
-0.369145 -0.011121 -0.844574 255 255 255
0.046755 -0.012879 -0.972869 255 255 255
0.255638 -0.015590 -1.085526 255 255 255
-0.436573 -0.012614 -0.843238 255 255 255
-0.107110 -0.014090 -0.909189 255 255 255
-0.267796 -0.013504 -0.860773 255 255 255
0.168513 -0.015862 -1.033793 255 255 255
-0.137254 -0.015260 -0.898285 255 255 255
0.017754 -0.016946 -0.960570 255 255 255
-0.403143 -0.015950 -0.841943 255 255 255
-0.302072 -0.016233 -0.853763 255 255 255
0.227074 -0.020546 -1.070311 255 255 255
0.139539 -0.019880 -1.019126 255 255 255
-0.170531 -0.018323 -0.887282 255 255 255
-0.013579 -0.020317 -0.948067 255 255 255
-0.335173 -0.019272 -0.848060 255 255 255
0.197558 -0.024282 -1.054127 255 255 255
0.109167 -0.023906 -1.005212 255 255 255
-0.234766 -0.021944 -0.868848 255 255 255
-0.435243 -0.021229 -0.841829 255 255 255
-0.043771 -0.024544 -0.935995 255 255 255
0.078289 -0.025929 -0.991018 255 255 255
-0.367096 -0.023181 -0.843769 255 255 255
0.167336 -0.029099 -1.038361 255 255 255
-0.267404 -0.026448 -0.861133 255 255 255
-0.083545 -0.028221 -0.920111 255 255 255
0.047456 -0.030220 -0.977873 255 255 255
-0.401569 -0.026280 -0.841243 255 255 255
-0.106477 -0.030017 -0.911491 255 255 255
0.138111 -0.034339 -1.023551 255 255 255
-0.434086 -0.029858 -0.841248 255 255 255
-0.136728 -0.032059 -0.900584 255 255 255
0.017282 -0.034232 -0.965159 255 255 255
-0.300948 -0.031864 -0.854539 255 255 255
0.108547 -0.038309 -1.010851 255 255 255
-0.332646 -0.032835 -0.848747 255 255 255
-0.169551 -0.034777 -0.889623 255 255 255
-0.366988 -0.034170 -0.843990 255 255 255
0.077701 -0.041634 -0.997406 255 255 255
-0.043956 -0.040065 -0.940167 255 255 255
-0.233605 -0.037971 -0.871092 255 255 255
-0.400695 -0.036830 -0.841620 255 255 255
-0.433280 -0.038470 -0.841483 255 255 255
0.046845 -0.044950 -0.984065 255 255 255
-0.266748 -0.040459 -0.863297 255 255 255
-0.083696 -0.044874 -0.924621 255 255 255
-0.106761 -0.045641 -0.915503 255 255 255
0.016400 -0.048304 -0.971034 255 255 255
-0.300823 -0.044658 -0.856639 255 255 255
-0.137245 -0.047114 -0.904408 255 255 255
-0.332781 -0.045404 -0.850521 255 255 255
-0.366344 -0.046743 -0.845832 255 255 255
-0.432669 -0.047218 -0.842587 255 255 255
-0.400180 -0.047381 -0.843134 255 255 255
-0.170050 -0.050253 -0.893374 255 255 255
-0.201983 -0.051962 -0.883687 255 255 255
-0.044495 -0.055792 -0.946641 255 255 255
-0.234351 -0.054686 -0.875242 255 255 255
-0.267221 -0.054618 -0.867223 255 255 255
-0.085421 -0.059720 -0.930079 255 255 255
-0.432050 -0.055407 -0.844375 255 255 255
-0.107650 -0.060834 -0.921307 255 255 255
-0.300119 -0.057686 -0.860463 255 255 255
-0.332361 -0.058351 -0.854145 255 255 255
-0.399939 -0.058262 -0.846083 255 255 255
-0.366003 -0.058378 -0.849332 255 255 255
-0.138961 -0.064431 -0.910764 255 255 255
-0.170519 -0.066264 -0.899586 255 255 255
-0.203393 -0.068196 -0.889855 255 255 255
-0.431914 -0.066378 -0.848569 255 255 255
-0.235195 -0.069996 -0.881450 255 255 255
-0.267562 -0.070252 -0.873909 255 255 255
-0.399200 -0.068629 -0.850346 255 255 255
-0.365866 -0.069823 -0.854217 255 255 255
-0.300041 -0.070843 -0.865934 255 255 255
-0.332954 -0.071129 -0.859429 255 255 255
0.245161 -0.177396 -0.972129 255 255 255
-0.177744 -0.217520 -0.793266 255 255 255
0.333297 0.071225 -1.138535 255 255 255
-0.240140 0.022989 -0.873814 255 255 255
-0.087811 0.022572 -0.919005 255 255 255
-0.237896 0.007475 -0.870168 255 255 255
-0.270014 0.002929 -0.862142 255 255 255
0.367562 0.035183 -1.151512 255 255 255
0.227249 0.019603 -1.059766 255 255 255
0.367922 0.025418 -1.151918 255 255 255
-0.235760 -0.009347 -0.868615 255 255 255
0.139150 0.011281 -1.014157 255 255 255
-0.202981 -0.020254 -0.877466 255 255 255
0.313275 0.005698 -1.115091 255 255 255
-0.201812 -0.036366 -0.879741 255 255 255
