0.182070 0.063067 -0.851380 255 255 255
0.215425 0.060619 -0.852337 255 255 255
0.149269 0.065406 -0.850785 255 255 255
0.116022 0.067250 -0.850162 255 255 255
0.248764 0.057787 -0.854379 255 255 255
0.082211 0.067966 -0.849354 255 255 255
0.315292 0.050732 -0.860144 255 255 255
0.181777 0.051300 -0.844773 255 255 255
0.149290 0.053096 -0.843885 255 255 255
0.214803 0.048006 -0.845356 255 255 255
0.248228 0.046075 -0.847816 255 255 255
0.282036 0.043471 -0.850898 255 255 255
0.315244 0.040763 -0.854510 255 255 255
0.081294 0.054345 -0.841879 255 255 255
0.115240 0.051207 -0.841423 255 255 255
0.047602 0.056766 -0.842619 255 255 255
0.347342 0.037174 -0.858782 255 255 255
-0.118459 0.073504 -0.854512 255 255 255
0.013551 0.057018 -0.842768 255 255 255
0.380786 0.032238 -0.865076 255 255 255
-0.019219 0.057035 -0.842989 255 255 255
0.181941 0.038868 -0.839575 255 255 255
0.248330 0.033768 -0.842872 255 255 255
0.214577 0.034631 -0.840044 255 255 255
0.282485 0.031215 -0.845999 255 255 255
-0.052456 0.058238 -0.844195 255 255 255
0.148331 0.038773 -0.837923 255 255 255
0.315233 0.028735 -0.849659 255 255 255
0.347187 0.025744 -0.854180 255 255 255
-0.095106 0.058583 -0.845556 255 255 255
0.080834 0.040138 -0.836179 255 255 255
0.115539 0.037086 -0.836099 255 255 255
0.380881 0.023186 -0.861247 255 255 255
0.046736 0.041190 -0.836199 255 255 255
0.013547 0.042303 -0.836703 255 255 255
-0.152351 0.060208 -0.850040 255 255 255
-0.019489 0.041751 -0.837046 255 255 255
0.248037 0.020334 -0.839288 255 255 255
0.214419 0.021927 -0.836719 255 255 255
0.282468 0.017978 -0.842601 255 255 255
0.181285 0.023152 -0.835160 255 255 255
0.315632 0.015759 -0.846430 255 255 255
0.346852 0.014624 -0.851192 255 255 255
-0.186375 0.059362 -0.853202 255 255 255
-0.052732 0.042638 -0.838212 255 255 255
-0.251625 0.069911 -0.868435 255 255 255
0.381054 0.012367 -0.858248 255 255 255
0.148721 0.022954 -0.833715 255 255 255
-0.095733 0.043887 -0.840009 255 255 255
0.413838 0.009812 -0.865678 255 255 255
0.114393 0.022549 -0.832396 255 255 255
-0.119340 0.044604 -0.841568 255 255 255
-0.219503 0.057859 -0.856781 255 255 255
0.080462 0.023485 -0.831874 255 255 255
-0.285015 0.067898 -0.873591 255 255 255
0.046358 0.025477 -0.832064 255 255 255
0.013925 0.025720 -0.832288 255 255 255
0.347000 0.003269 -0.849717 255 255 255
-0.252038 0.056912 -0.861481 255 255 255
0.315677 0.003792 -0.845036 255 255 255
0.282703 0.004808 -0.841088 255 255 255
0.380829 0.001981 -0.856712 255 255 255
0.413724 0.000925 -0.864403 255 255 255
0.213836 0.007367 -0.834761 255 255 255
0.247498 0.005407 -0.837363 255 255 255
-0.019675 0.025878 -0.833179 255 255 255
-0.186735 0.043301 -0.846998 255 255 255
-0.318007 0.064759 -0.879713 255 255 255
0.181623 0.007038 -0.833022 255 255 255
-0.053073 0.026867 -0.834326 255 255 255
0.148342 0.007369 -0.831711 255 255 255
-0.285898 0.053224 -0.866131 255 255 255
-0.095664 0.027317 -0.835973 255 255 255
0.114060 0.007719 -0.830581 255 255 255
0.413800 -0.007272 -0.864091 255 255 255
0.347318 -0.007588 -0.849634 255 255 255
0.380912 -0.008247 -0.856400 255 255 255
-0.119787 0.027180 -0.837335 255 255 255
0.315814 -0.006647 -0.845032 255 255 255
-0.350080 0.061123 -0.886480 255 255 255
-0.252508 0.043187 -0.856187 255 255 255
-0.151371 0.028553 -0.839878 255 255 255
0.282215 -0.007887 -0.841154 255 255 255
0.214088 -0.005867 -0.834647 255 255 255
0.014083 0.009188 -0.830249 255 255 255
0.247638 -0.008029 -0.837485 255 255 255
-0.318668 0.049825 -0.872170 255 255 255
-0.187424 0.027350 -0.843232 255 255 255
-0.020525 0.009496 -0.831339 255 255 255
-0.285952 0.040626 -0.861518 255 255 255
0.380579 -0.017762 -0.857106 255 255 255
-0.053740 0.009963 -0.832460 255 255 255
0.148256 -0.007215 -0.831622 255 255 255
-0.350241 0.048414 -0.880024 255 255 255
-0.221204 0.027361 -0.847464 255 255 255
0.315697 -0.018139 -0.846294 255 255 255
0.347087 -0.019314 -0.850897 255 255 255
-0.096110 0.010286 -0.834084 255 255 255
0.080009 -0.005507 -0.830080 255 255 255
0.114122 -0.008665 -0.830666 255 255 255
-0.319965 0.038298 -0.868364 255 255 255
-0.253421 0.027490 -0.852424 255 255 255
0.045791 -0.004880 -0.829998 255 255 255
0.281344 -0.020799 -0.842912 255 255 255
-0.120105 0.010079 -0.835510 255 255 255
0.247632 -0.020626 -0.839240 255 255 255
0.213898 -0.019632 -0.836203 255 255 255
0.380353 -0.027804 -0.858877 255 255 255
-0.152660 0.010201 -0.837945 255 255 255
0.013573 -0.006370 -0.830375 255 255 255
-0.286336 0.026194 -0.858224 255 255 255
-0.352086 0.036229 -0.876106 255 255 255
-0.186653 0.009906 -0.841282 255 255 255
0.346967 -0.030943 -0.853754 255 255 255
-0.020671 -0.007342 -0.831638 255 255 255
0.315230 -0.030288 -0.849210 255 255 255
-0.320451 0.024784 -0.865457 255 255 255
0.147849 -0.023300 -0.833537 255 255 255
-0.220808 0.010031 -0.845565 255 255 255
-0.384418 0.033808 -0.885093 255 255 255
0.113259 -0.023457 -0.832622 255 255 255
0.281112 -0.033688 -0.846474 255 255 255
0.248177 -0.032483 -0.842259 255 255 255
0.079755 -0.021624 -0.832007 255 255 255
-0.095921 -0.007071 -0.834392 255 255 255
-0.353136 0.023172 -0.873518 255 255 255
0.045239 -0.021867 -0.832121 255 255 255
0.214058 -0.033754 -0.839685 255 255 255
-0.120674 -0.007329 -0.835941 255 255 255
0.346852 -0.041127 -0.857870 255 255 255
-0.152628 -0.005413 -0.838160 255 255 255
-0.286430 0.009554 -0.856616 255 255 255
0.013488 -0.022951 -0.832724 255 255 255
-0.384967 0.022061 -0.882742 255 255 255
-0.187654 -0.005091 -0.841678 255 255 255
0.314416 -0.043340 -0.854233 255 255 255
0.180373 -0.037406 -0.838682 255 255 255
-0.320733 0.010267 -0.864146 255 255 255
-0.221343 -0.003748 -0.845886 255 255 255
-0.253913 -0.002226 -0.850912 255 255 255
-0.353434 0.010536 -0.872417 255 255 255
-0.417413 0.020603 -0.894212 255 255 255
-0.053170 -0.024264 -0.835249 255 255 255
0.114055 -0.039328 -0.836857 255 255 255
0.248012 -0.048219 -0.848471 255 255 255
-0.287160 -0.003424 -0.857226 255 255 255
-0.120680 -0.023321 -0.838325 255 255 255
0.214260 -0.048900 -0.845772 255 255 255
-0.447172 0.018498 -0.907264 255 255 255
0.179920 -0.050538 -0.843813 255 255 255
-0.417269 0.010132 -0.893258 255 255 255
-0.320882 -0.005483 -0.864915 255 255 255
-0.187383 -0.021661 -0.843988 255 255 255
0.013284 -0.040244 -0.837704 255 255 255
-0.352157 -0.003285 -0.872480 255 255 255
-0.220889 -0.019999 -0.848021 255 255 255
-0.447183 0.009760 -0.906533 255 255 255
-0.253473 -0.018387 -0.853021 255 255 255
-0.385441 -0.001195 -0.882078 255 255 255
-0.053117 -0.039807 -0.839652 255 255 255
0.114432 -0.053688 -0.842776 255 255 255
-0.096024 -0.040538 -0.841628 255 255 255
-0.447173 0.001074 -0.906729 255 255 255
-0.321135 -0.018305 -0.867209 255 255 255
-0.153165 -0.037302 -0.844915 255 255 255
0.046835 -0.054056 -0.843334 255 255 255
-0.352760 -0.015851 -0.874593 255 255 255
-0.187779 -0.037103 -0.848186 255 255 255
-0.385313 -0.013841 -0.883938 255 255 255
-0.220932 -0.035613 -0.852236 255 255 255
-0.254065 -0.035073 -0.857705 255 255 255
-0.320195 -0.031425 -0.870898 255 255 255
-0.096785 -0.055248 -0.847806 255 255 255
-0.416900 -0.022051 -0.898073 255 255 255
-0.153776 -0.054459 -0.852083 255 255 255
-0.187202 -0.053096 -0.854648 255 255 255
-0.221260 -0.051748 -0.858977 255 255 255
-0.253784 -0.050342 -0.864213 255 255 255
-0.319148 -0.044630 -0.876302 255 255 255
-0.351780 -0.041636 -0.883668 255 255 255
-0.254656 0.250200 -0.968069 255 255 255
0.205991 0.229268 -0.956958 255 255 255
-0.051784 0.073502 -0.852321 255 255 255
-0.094391 0.072661 -0.852848 255 255 255
-0.152653 0.072751 -0.856695 255 255 255
-0.186186 0.072433 -0.860139 255 255 255
-0.018161 0.071173 -0.850585 255 255 255
0.014960 0.071003 -0.850565 255 255 255
-0.218435 0.071161 -0.863698 255 255 255
0.048524 0.069422 -0.849720 255 255 255
-0.117848 0.059594 -0.847269 255 255 255
0.281987 0.054338 -0.856949 255 255 255
-0.382380 0.056722 -0.894268 255 255 255
-0.415241 0.052596 -0.904678 255 255 255
0.348272 0.046606 -0.864412 255 255 255
-0.152585 0.044174 -0.843832 255 255 255
-0.220059 0.042923 -0.851071 255 255 255
-0.445059 0.047379 -0.916421 255 255 255
-0.383653 0.045007 -0.888800 255 255 255
0.380242 0.040539 -0.869788 255 255 255
-0.416928 0.041505 -0.899615 255 255 255
0.413218 0.034982 -0.875080 255 255 255
-0.446754 0.036430 -0.911634 255 255 255
-0.417308 0.029749 -0.895916 255 255 255
0.413967 0.027594 -0.871268 255 255 255
-0.446984 0.027217 -0.908829 255 255 255
0.413990 0.019020 -0.868090 255 255 255
-0.253712 0.010469 -0.850689 255 255 255
0.046313 0.008915 -0.829986 255 255 255
-0.384587 0.009808 -0.881544 255 255 255
0.080491 0.008162 -0.830047 255 255 255
-0.417320 -0.000508 -0.893602 255 255 255
0.180997 -0.007021 -0.832919 255 255 255
-0.447021 -0.007728 -0.907810 255 255 255
-0.052950 -0.007807 -0.832762 255 255 255
-0.417258 -0.011118 -0.895158 255 255 255
-0.446531 -0.015989 -0.909505 255 255 255
0.413390 -0.017058 -0.864613 255 255 255
-0.287016 -0.017513 -0.859441 255 255 255
-0.152820 -0.022272 -0.840649 255 255 255
-0.020396 -0.023106 -0.834016 255 255 255
-0.096135 -0.023872 -0.836900 255 255 255
0.180237 -0.023960 -0.835109 255 255 255
0.412942 -0.024783 -0.865639 255 255 255
-0.384730 -0.025575 -0.887311 255 255 255
-0.445761 -0.026994 -0.913633 255 255 255
-0.352151 -0.028873 -0.878165 255 255 255
-0.415504 -0.032510 -0.902046 255 255 255
-0.287193 -0.031644 -0.863725 255 255 255
0.413045 -0.034492 -0.868380 255 255 255
-0.383739 -0.037084 -0.892078 255 255 255
0.380205 -0.038616 -0.862384 255 255 255
0.080034 -0.038179 -0.836397 255 255 255
0.147707 -0.038412 -0.837153 255 255 255
-0.120794 -0.038941 -0.842650 255 255 255
0.046261 -0.039325 -0.836960 255 255 255
-0.286301 -0.047281 -0.870527 255 255 255
0.280617 -0.046188 -0.850791 255 255 255
0.146842 -0.052729 -0.842323 255 255 255
-0.120678 -0.054079 -0.848848 255 255 255
0.080624 -0.053863 -0.843029 255 255 255
0.013535 -0.054283 -0.843841 255 255 255
-0.052468 -0.055536 -0.846314 255 255 255
-0.251178 -0.202063 -0.764863 255 255 255
0.210267 -0.205588 -0.756793 255 255 255
