-0.030683 0.081907 -0.942784 255 255 255
-0.092405 0.082596 -0.969436 255 255 255
0.031329 0.078337 -0.916742 255 255 255
-0.123597 0.082048 -0.984257 255 255 255
-0.153841 0.082116 -0.999790 255 255 255
0.093932 0.074824 -0.890691 255 255 255
0.125941 0.073875 -0.878917 255 255 255
0.157346 0.071842 -0.867162 255 255 255
-0.182833 0.081214 -1.014953 255 255 255
0.188316 0.069232 -0.855592 255 255 255
0.219937 0.066424 -0.844163 255 255 255
0.251943 0.063293 -0.833760 255 255 255
-0.241689 0.078637 -1.048810 255 255 255
0.284006 0.059603 -0.823807 255 255 255
0.058874 0.063887 -0.897205 255 255 255
-0.094546 0.068613 -0.962612 255 255 255
-0.034328 0.066550 -0.935629 255 255 255
0.026987 0.064414 -0.909953 255 255 255
-0.125865 0.069491 -0.977993 255 255 255
-0.073867 0.067388 -0.952585 255 255 255
-0.003722 0.064910 -0.922167 255 255 255
-0.270414 0.075854 -1.066669 255 255 255
0.090221 0.061242 -0.884076 255 255 255
0.154754 0.059475 -0.860826 255 255 255
0.316414 0.055755 -0.814527 255 255 255
-0.156665 0.069004 -0.993449 255 255 255
0.185550 0.057382 -0.849664 255 255 255
0.121910 0.057846 -0.871156 255 255 255
-0.186479 0.067896 -1.008999 255 255 255
0.216723 0.053783 -0.837978 255 255 255
0.248976 0.051571 -0.827885 255 255 255
-0.298085 0.072562 -1.084798 255 255 255
-0.215302 0.067282 -1.025385 255 255 255
0.281783 0.048700 -0.818213 255 255 255
0.314283 0.045732 -0.809404 255 255 255
-0.245366 0.063932 -1.042257 255 255 255
0.345941 0.041806 -0.801728 255 255 255
0.183797 0.044931 -0.844880 255 255 255
0.024610 0.049826 -0.904155 255 255 255
0.055581 0.048440 -0.891449 255 255 255
0.151640 0.045171 -0.855749 255 255 255
0.087592 0.047099 -0.878872 255 255 255
-0.098061 0.053632 -0.957972 255 255 255
-0.076526 0.052727 -0.947721 255 255 255
-0.036816 0.051034 -0.930229 255 255 255
-0.006132 0.049763 -0.916777 255 255 255
0.379619 0.036874 -0.794952 255 255 255
0.120162 0.043765 -0.866090 255 255 255
-0.128447 0.053508 -0.972355 255 255 255
0.214539 0.040430 -0.833166 255 255 255
-0.273954 0.060919 -1.059942 255 255 255
0.247240 0.039253 -0.823297 255 255 255
0.280415 0.036436 -0.813572 255 255 255
-0.159343 0.052986 -0.987932 255 255 255
-0.300738 0.059852 -1.078865 255 255 255
0.312482 0.033686 -0.804938 255 255 255
-0.189153 0.052981 -1.003986 255 255 255
-0.217756 0.053586 -1.020688 255 255 255
0.344151 0.030408 -0.797501 255 255 255
0.378325 0.027764 -0.791483 255 255 255
-0.329002 0.056869 -1.099345 255 255 255
-0.247172 0.051338 -1.038031 255 255 255
0.181486 0.029245 -0.841092 255 255 255
0.213109 0.027739 -0.830204 255 255 255
0.150386 0.029378 -0.851771 255 255 255
0.245573 0.025845 -0.820127 255 255 255
-0.276632 0.049412 -1.056966 255 255 255
0.053577 0.032800 -0.887653 255 255 255
0.279085 0.023198 -0.810509 255 255 255
0.023161 0.033363 -0.899666 255 255 255
0.117626 0.029284 -0.863069 255 255 255
0.085548 0.030516 -0.874985 255 255 255
-0.007832 0.033916 -0.913262 255 255 255
-0.038682 0.035297 -0.926757 255 255 255
0.311629 0.020702 -0.801931 255 255 255
0.342688 0.019295 -0.794869 255 255 255
-0.078053 0.036184 -0.943990 255 255 255
0.377363 0.016870 -0.788865 255 255 255
-0.128813 0.037907 -0.968373 255 255 255
-0.303987 0.047713 -1.075975 255 255 255
-0.100138 0.036252 -0.954274 255 255 255
0.410860 0.014184 -0.783829 255 255 255
-0.161432 0.037057 -0.984803 255 255 255
-0.191626 0.037454 -1.001129 255 255 255
-0.331142 0.045650 -1.096219 255 255 255
-0.220063 0.037925 -1.017631 255 255 255
0.342199 0.007947 -0.793492 255 255 255
-0.248814 0.036936 -1.035181 255 255 255
0.211744 0.013213 -0.828622 255 255 255
0.376536 0.006462 -0.787656 255 255 255
0.410253 0.005263 -0.782758 255 255 255
0.278688 0.010039 -0.809122 255 255 255
0.311083 0.008739 -0.800703 255 255 255
0.244271 0.010937 -0.818609 255 255 255
0.180907 0.013172 -0.839003 255 255 255
0.149191 0.013837 -0.850069 255 255 255
-0.358030 0.041964 -1.118475 255 255 255
-0.278203 0.035926 -1.054524 255 255 255
0.116535 0.014503 -0.861481 255 255 255
0.084788 0.015245 -0.873245 255 255 255
0.052626 0.016299 -0.885645 255 255 255
-0.009441 0.017570 -0.911842 255 255 255
-0.305952 0.034677 -1.074035 255 255 255
0.410140 -0.002946 -0.782452 255 255 255
-0.040092 0.018416 -0.925341 255 255 255
-0.079287 0.019196 -0.942409 255 255 255
0.376423 -0.003749 -0.787374 255 255 255
0.342383 -0.002898 -0.793311 255 255 255
0.311142 -0.001689 -0.800707 255 255 255
-0.332497 0.033893 -1.094392 255 255 255
-0.101218 0.019208 -0.952743 255 255 255
-0.130841 0.019607 -0.967115 255 255 255
0.211836 0.000005 -0.828429 255 255 255
-0.358700 0.032807 -1.117093 255 255 255
0.244351 -0.002477 -0.818718 255 255 255
-0.161507 0.019659 -0.982800 255 255 255
-0.192050 0.020170 -0.999284 255 255 255
0.180173 -0.000846 -0.839139 255 255 255
-0.221071 0.020956 -1.016168 255 255 255
0.148969 -0.000710 -0.850015 255 255 255
0.376270 -0.013269 -0.788128 255 255 255
-0.381818 0.031023 -1.140328 255 255 255
0.084225 0.001613 -0.873412 255 255 255
0.052022 0.002560 -0.885814 255 255 255
-0.249620 0.020343 -1.033742 255 255 255
0.116477 -0.001849 -0.861469 255 255 255
-0.279032 0.021449 -1.053446 255 255 255
0.311387 -0.013172 -0.801939 255 255 255
0.342499 -0.014626 -0.794558 255 255 255
-0.306689 0.022063 -1.073198 255 255 255
0.277894 -0.015510 -0.811509 255 255 255
-0.332594 0.021646 -1.093226 255 255 255
-0.009655 0.000767 -0.912109 255 255 255
0.244883 -0.015050 -0.820384 255 255 255
-0.358916 0.022340 -1.116260 255 255 255
0.212097 -0.013733 -0.829931 255 255 255
0.376585 -0.023329 -0.789784 255 255 255
-0.039418 0.000651 -0.925309 255 255 255
-0.382142 0.022286 -1.139704 255 255 255
-0.079144 0.001881 -0.942637 255 255 255
-0.130845 0.004031 -0.967301 255 255 255
-0.101732 0.001836 -0.953351 255 255 255
-0.192531 0.006447 -0.999760 255 255 255
-0.221283 0.008304 -1.016426 255 255 255
0.311896 -0.025316 -0.804829 255 255 255
0.180090 -0.017751 -0.841413 255 255 255
0.149103 -0.016772 -0.851860 255 255 255
-0.250231 0.007388 -1.034488 255 255 255
0.084530 -0.014469 -0.875243 255 255 255
0.116226 -0.016606 -0.863538 255 255 255
0.278860 -0.028388 -0.814958 255 255 255
0.246413 -0.026892 -0.823095 255 255 255
-0.333312 0.010675 -1.094015 255 255 255
-0.305580 0.008261 -1.072774 255 255 255
-0.382136 0.013608 -1.139845 255 255 255
-0.358941 0.011720 -1.116586 255 255 255
-0.279030 0.005740 -1.054182 255 255 255
0.022511 -0.015157 -0.900225 255 255 255
0.213398 -0.027854 -0.833136 255 255 255
0.312829 -0.038388 -0.809828 255 255 255
-0.038871 -0.015768 -0.927705 255 255 255
0.181374 -0.031200 -0.844609 255 255 255
-0.101001 -0.014172 -0.955512 255 255 255
0.150107 -0.031913 -0.855127 255 255 255
0.279751 -0.040974 -0.818956 255 255 255
-0.130266 -0.012787 -0.969588 255 255 255
-0.191450 -0.009770 -1.001560 255 255 255
-0.161470 -0.011825 -0.985467 255 255 255
-0.220220 -0.007815 -1.018206 255 255 255
0.118370 -0.032475 -0.867124 255 255 255
-0.358420 0.001115 -1.117958 255 255 255
-0.249510 -0.006719 -1.036283 255 255 255
0.086266 -0.030997 -0.879211 255 255 255
0.248365 -0.042641 -0.829013 255 255 255
-0.332689 -0.001959 -1.095612 255 255 255
-0.305521 -0.004286 -1.074870 255 255 255
-0.278539 -0.007060 -1.056349 255 255 255
0.215683 -0.042985 -0.838843 255 255 255
0.054773 -0.031785 -0.892217 255 255 255
0.024087 -0.032367 -0.905067 255 255 255
0.182672 -0.044382 -0.849498 255 255 255
-0.037306 -0.031282 -0.931806 255 255 255
0.150994 -0.046290 -0.860131 255 255 255
-0.357063 -0.009798 -1.120525 255 255 255
-0.099660 -0.029811 -0.959502 255 255 255
-0.076821 -0.031630 -0.949485 255 255 255
0.120742 -0.046869 -0.872510 255 255 255
-0.129222 -0.027837 -0.973502 255 255 255
-0.330917 -0.013646 -1.098570 255 255 255
-0.160497 -0.027288 -0.989330 255 255 255
0.089095 -0.046710 -0.885184 255 255 255
-0.248312 -0.020891 -1.040165 255 255 255
-0.190053 -0.025346 -1.005435 255 255 255
-0.303717 -0.017294 -1.077944 255 255 255
-0.219152 -0.024457 -1.022743 255 255 255
-0.276378 -0.020176 -1.059373 255 255 255
-0.301416 -0.030050 -1.082955 255 255 255
-0.127445 -0.045147 -0.980146 255 255 255
-0.273490 -0.033384 -1.064063 255 255 255
-0.244937 -0.036526 -1.046234 255 255 255
-0.187977 -0.041482 -1.011880 255 255 255
-0.216550 -0.039718 -1.028787 255 255 255
-0.212222 0.080265 -1.031662 255 255 255
0.022410 0.016892 -0.897598 255 255 255
-0.162415 0.004715 -0.983514 255 255 255
0.021846 0.001378 -0.897928 255 255 255
0.278178 -0.002637 -0.809456 255 255 255
-0.078550 -0.014944 -0.945118 255 255 255
0.052127 -0.014384 -0.887996 255 255 255
0.343326 -0.026254 -0.797304 255 255 255
-0.157847 -0.043402 -0.994910 255 255 255
-0.176629 0.262457 -1.124653 255 255 255
0.250383 0.237880 -0.943519 255 255 255
0.000195 0.079016 -0.928818 255 255 255
-0.070346 0.081351 -0.959221 255 255 255
0.062486 0.076479 -0.903526 255 255 255
0.348916 0.051270 -0.806577 255 255 255
0.380891 0.045211 -0.799536 255 255 255
-0.325618 0.068548 -1.104006 255 255 255
0.413647 0.039617 -0.792181 255 255 255
-0.352780 0.064891 -1.125670 255 255 255
0.412933 0.032094 -0.788573 255 255 255
-0.376310 0.059867 -1.147876 255 255 255
-0.356366 0.053806 -1.121595 255 255 255
0.411811 0.023457 -0.785812 255 255 255
-0.379789 0.048931 -1.144081 255 255 255
-0.381074 0.039765 -1.141638 255 255 255
0.409841 -0.012753 -0.783065 255 255 255
0.409717 -0.020502 -0.784140 255 255 255
-0.381680 0.004793 -1.140738 255 255 255
-0.008682 -0.014971 -0.914191 255 255 255
0.410749 -0.030281 -0.786624 255 255 255
-0.380689 -0.003482 -1.142052 255 255 255
0.377622 -0.034182 -0.793117 255 255 255
0.344613 -0.036470 -0.801173 255 255 255
-0.378523 -0.014523 -1.145668 255 255 255
-0.354424 -0.020336 -1.123659 255 255 255
-0.328366 -0.025221 -1.102550 255 255 255
0.057583 -0.046451 -0.898124 255 255 255
0.026543 -0.046322 -0.910895 255 255 255
-0.034334 -0.046953 -0.937879 255 255 255
-0.097434 -0.045001 -0.965223 255 255 255
-0.075374 -0.046367 -0.955569 255 255 255
0.176299 -0.199120 -0.754208 255 255 255
-0.252638 -0.192032 -0.932975 255 255 255
