0.115978 0.079052 -0.891034 255 255 255
0.147559 0.078125 -0.879705 255 255 255
0.178757 0.076609 -0.868601 255 255 255
0.083802 0.078867 -0.902349 255 255 255
0.210586 0.074915 -0.857623 255 255 255
0.020784 0.080180 -0.927533 255 255 255
0.242813 0.072919 -0.847711 255 255 255
-0.041656 0.081576 -0.952709 255 255 255
-0.103705 0.080127 -0.978508 255 255 255
0.307699 0.067684 -0.829364 255 255 255
-0.135045 0.078507 -0.992922 255 255 255
-0.165479 0.077537 -1.008025 255 255 255
0.145518 0.065638 -0.873403 255 255 255
0.176511 0.064636 -0.862690 255 255 255
-0.194616 0.075640 -1.022800 255 255 255
0.049117 0.066663 -0.908470 255 255 255
0.207922 0.062138 -0.851449 255 255 255
0.080693 0.065116 -0.895763 255 255 255
0.017067 0.066063 -0.920789 255 255 255
0.273324 0.059367 -0.832615 255 255 255
0.112642 0.062838 -0.883285 255 255 255
-0.224163 0.073692 -1.039129 255 255 255
-0.013797 0.065478 -0.932594 255 255 255
-0.044619 0.066058 -0.945614 255 255 255
0.306007 0.057564 -0.824263 255 255 255
-0.084389 0.065521 -0.962011 255 255 255
-0.105234 0.066036 -0.971740 255 255 255
0.337853 0.054777 -0.817041 255 255 255
-0.253781 0.071053 -1.055877 255 255 255
-0.136762 0.065855 -0.986722 255 255 255
-0.167739 0.064292 -1.001732 255 255 255
0.371704 0.051054 -0.810709 255 255 255
-0.282618 0.067291 -1.073318 255 255 255
-0.197699 0.062158 -1.016825 255 255 255
0.143018 0.051199 -0.868370 255 255 255
0.239144 0.048685 -0.837281 255 255 255
0.206314 0.048695 -0.846689 255 255 255
0.078664 0.050862 -0.890613 255 255 255
-0.310389 0.063079 -1.091064 255 255 255
0.046480 0.051069 -0.902762 255 255 255
0.272485 0.047048 -0.828009 255 255 255
0.015321 0.051353 -0.915051 255 255 255
0.111492 0.048682 -0.878288 255 255 255
0.304730 0.045450 -0.819849 255 255 255
-0.015561 0.050214 -0.927259 255 255 255
-0.046448 0.050422 -0.940279 255 255 255
0.336533 0.043301 -0.812826 255 255 255
-0.256831 0.056194 -1.049346 255 255 255
-0.086432 0.050744 -0.957195 255 255 255
-0.108124 0.050909 -0.967147 255 255 255
0.370802 0.041888 -0.807285 255 255 255
-0.138671 0.049739 -0.981131 255 255 255
-0.285511 0.052216 -1.066647 255 255 255
-0.169730 0.048163 -0.996269 255 255 255
-0.199748 0.047134 -1.011884 255 255 255
-0.312496 0.050249 -1.085170 255 255 255
-0.228563 0.046773 -1.028212 255 255 255
0.173608 0.036325 -0.854220 255 255 255
0.205382 0.035951 -0.843760 255 255 255
0.238010 0.035206 -0.834136 255 255 255
-0.340907 0.046324 -1.105239 255 255 255
0.142405 0.035357 -0.864455 255 255 255
0.271677 0.033763 -0.824971 255 255 255
0.304391 0.032428 -0.816875 255 255 255
0.335521 0.032134 -0.810236 255 255 255
0.045102 0.035347 -0.899023 255 255 255
0.109543 0.034101 -0.875327 255 255 255
0.077288 0.034192 -0.886782 255 255 255
0.014539 0.034826 -0.910642 255 255 255
0.370288 0.030957 -0.804713 255 255 255
-0.287727 0.040609 -1.063691 255 255 255
-0.016618 0.034293 -0.923831 255 255 255
-0.047683 0.034611 -0.936879 255 255 255
-0.368434 0.042367 -1.127132 255 255 255
0.403856 0.029482 -0.800147 255 255 255
-0.087304 0.034136 -0.953534 255 255 255
-0.138419 0.034112 -0.977170 255 255 255
-0.109510 0.033444 -0.963507 255 255 255
-0.315261 0.037997 -1.082314 255 255 255
-0.171201 0.032146 -0.993158 255 255 255
-0.342596 0.035027 -1.102168 255 255 255
-0.201597 0.031523 -1.009095 255 255 255
-0.259194 0.029060 -1.042348 255 255 255
-0.369623 0.030456 -1.124062 255 255 255
0.335466 0.020771 -0.808901 255 255 255
0.204579 0.021375 -0.842225 255 255 255
0.369865 0.020525 -0.803543 255 255 255
0.403584 0.020540 -0.799092 255 255 255
-0.288776 0.027061 -1.061300 255 255 255
0.271775 0.020583 -0.823636 255 255 255
0.304309 0.020451 -0.815696 255 255 255
0.237286 0.020264 -0.832675 255 255 255
0.141811 0.019774 -0.862827 255 255 255
-0.316722 0.024885 -1.080421 255 255 255
0.109012 0.019279 -0.873783 255 255 255
0.077116 0.018893 -0.885101 255 255 255
0.044792 0.018806 -0.897095 255 255 255
-0.343492 0.023217 -1.100386 255 255 255
0.014426 0.018324 -0.908655 255 255 255
-0.017596 0.017888 -0.922482 255 255 255
-0.048448 0.017676 -0.935530 255 255 255
-0.369934 0.021275 -1.122728 255 255 255
-0.087889 0.017108 -0.952017 255 255 255
-0.109937 0.016365 -0.962045 255 255 255
-0.139750 0.015755 -0.976000 255 255 255
-0.393278 0.018748 -1.145605 255 255 255
0.403779 0.012330 -0.798826 255 255 255
-0.170616 0.014751 -0.991247 255 255 255
-0.201365 0.014221 -1.007337 255 255 255
-0.230630 0.014020 -1.023809 255 255 255
0.370125 0.010314 -0.803307 255 255 255
0.304740 0.010031 -0.815734 255 255 255
0.336040 0.009934 -0.808763 255 255 255
-0.259373 0.012443 -1.040976 255 255 255
-0.289071 0.012557 -1.060268 255 255 255
-0.316987 0.012246 -1.079625 255 255 255
0.205160 0.008175 -0.842101 255 255 255
0.271748 0.007907 -0.824046 255 255 255
-0.343127 0.010970 -1.099278 255 255 255
-0.369759 0.010804 -1.121942 255 255 255
0.237848 0.006860 -0.832839 255 255 255
-0.393276 0.010009 -1.145023 255 255 255
0.077051 0.005249 -0.885335 255 255 255
0.044688 0.005052 -0.897326 255 255 255
0.109556 0.002941 -0.873862 255 255 255
0.014432 0.002802 -0.909056 255 255 255
-0.017191 0.001096 -0.922847 255 255 255
-0.230375 0.001371 -1.024143 255 255 255
0.370317 0.000796 -0.804105 255 255 255
-0.392951 0.001333 -1.145230 255 255 255
-0.201359 0.000492 -1.007886 255 255 255
-0.139181 0.000187 -0.976276 255 255 255
-0.087104 -0.000195 -0.952347 255 255 255
-0.047120 -0.000056 -0.935599 255 255 255
-0.369396 0.000190 -1.122318 255 255 255
-0.343456 -0.000012 -1.100117 255 255 255
-0.170979 -0.000212 -0.992047 255 255 255
-0.259521 -0.000525 -1.041782 255 255 255
-0.109820 -0.001017 -0.962733 255 255 255
-0.315374 -0.001508 -1.079295 255 255 255
0.305385 -0.001430 -0.817019 255 255 255
0.336591 -0.001770 -0.810090 255 255 255
-0.288498 -0.003136 -1.061096 255 255 255
0.271903 -0.004961 -0.826134 255 255 255
0.205902 -0.005539 -0.843657 255 255 255
0.238821 -0.005679 -0.834573 255 255 255
-0.368504 -0.010379 -1.123783 255 255 255
0.370979 -0.009232 -0.805810 255 255 255
-0.342392 -0.012608 -1.101785 255 255 255
0.077924 -0.010807 -0.887257 255 255 255
0.142826 -0.010815 -0.864772 255 255 255
-0.314885 -0.014030 -1.081471 255 255 255
0.045385 -0.011868 -0.899585 255 255 255
0.109825 -0.011812 -0.875999 255 255 255
-0.258313 -0.014585 -1.043648 255 255 255
-0.228759 -0.014694 -1.025992 255 255 255
0.015671 -0.013694 -0.911433 255 255 255
-0.199705 -0.015666 -1.009774 255 255 255
0.337820 -0.013342 -0.812919 255 255 255
0.306310 -0.013532 -0.819992 255 255 255
-0.169459 -0.016702 -0.994073 255 255 255
-0.138023 -0.016596 -0.978642 255 255 255
-0.046006 -0.016429 -0.938073 255 255 255
-0.108530 -0.016978 -0.965004 255 255 255
-0.085932 -0.016979 -0.954920 255 255 255
-0.366782 -0.021218 -1.126427 255 255 255
0.240746 -0.017441 -0.837366 255 255 255
0.273299 -0.017772 -0.829667 255 255 255
0.207676 -0.019585 -0.846952 255 255 255
-0.312649 -0.026950 -1.084611 255 255 255
-0.284973 -0.028912 -1.066458 255 255 255
-0.256645 -0.028693 -1.047636 255 255 255
0.175675 -0.024070 -0.858019 255 255 255
-0.227142 -0.031254 -1.030644 255 255 255
0.080200 -0.027248 -0.891321 255 255 255
-0.197791 -0.031162 -1.013759 255 255 255
0.112494 -0.027581 -0.879678 255 255 255
-0.167980 -0.032103 -0.998026 255 255 255
-0.136485 -0.031581 -0.982645 255 255 255
0.048608 -0.029147 -0.903924 255 255 255
0.307656 -0.026537 -0.825075 255 255 255
-0.106670 -0.032533 -0.969095 255 255 255
0.017798 -0.030821 -0.916359 255 255 255
-0.043935 -0.031858 -0.942262 255 255 255
-0.083656 -0.033569 -0.959390 255 255 255
0.274585 -0.030309 -0.833729 255 255 255
-0.309949 -0.039587 -1.089728 255 255 255
0.243205 -0.033081 -0.843404 255 255 255
0.210440 -0.034599 -0.852756 255 255 255
-0.252787 -0.044161 -1.053822 255 255 255
0.177383 -0.037175 -0.862978 255 255 255
-0.224069 -0.046391 -1.036796 255 255 255
0.145679 -0.040214 -0.873194 255 255 255
-0.195217 -0.047187 -1.020313 255 255 255
0.115325 -0.041865 -0.885175 255 255 255
0.083529 -0.042822 -0.897420 255 255 255
-0.164819 -0.048081 -1.003740 255 255 255
-0.134167 -0.048783 -0.989424 255 255 255
-0.196749 0.257720 -1.131607 255 255 255
0.233273 0.247994 -0.956997 255 255 255
0.052160 0.079412 -0.914754 255 255 255
-0.010504 0.079763 -0.939187 255 255 255
-0.081477 0.079641 -0.968619 255 255 255
0.275080 0.070373 -0.838209 255 255 255
0.340372 0.064361 -0.821836 255 255 255
0.240352 0.061072 -0.841836 255 255 255
0.372585 0.059450 -0.815250 255 255 255
0.405547 0.055031 -0.808370 255 255 255
0.175287 0.052108 -0.857954 255 255 255
0.405166 0.047469 -0.804800 255 255 255
0.404410 0.038785 -0.802075 255 255 255
-0.226678 0.060571 -1.032857 255 255 255
-0.338011 0.058139 -1.109910 255 255 255
-0.365307 0.053592 -1.131185 255 255 255
-0.258112 0.043526 -1.045164 255 255 255
0.173659 0.020241 -0.852197 255 255 255
-0.388937 0.047807 -1.153057 255 255 255
0.403851 0.002524 -0.799498 255 255 255
-0.230260 0.031021 -1.025199 255 255 255
0.173439 0.006206 -0.852391 255 255 255
0.403993 -0.005218 -0.800604 255 255 255
0.142119 0.005227 -0.862839 255 255 255
-0.391958 0.036733 -1.149269 255 255 255
0.405355 -0.014946 -0.803147 255 255 255
0.372372 -0.020024 -0.809211 255 255 255
-0.392872 0.027515 -1.146861 255 255 255
0.173945 -0.010688 -0.854739 255 255 255
0.339420 -0.023489 -0.816846 255 255 255
-0.015680 -0.014599 -0.925000 255 255 255
0.144325 -0.025896 -0.868094 255 255 255
-0.287571 -0.015901 -1.063335 255 255 255
-0.392187 -0.007450 -1.146181 255 255 255
0.051869 -0.043680 -0.909932 255 255 255
0.020671 -0.044668 -0.922254 255 255 255
-0.390911 -0.015674 -1.147540 255 255 255
-0.040484 -0.047403 -0.948433 255 255 255
-0.340235 -0.024211 -1.104835 255 255 255
-0.081747 -0.048222 -0.965577 255 255 255
-0.103973 -0.047612 -0.974919 255 255 255
-0.388395 -0.026616 -1.151203 255 255 255
-0.363813 -0.031635 -1.129642 255 255 255
-0.337323 -0.035670 -1.108879 255 255 255
-0.281673 -0.041979 -1.071244 255 255 255
0.177462 -0.191260 -0.766990 255 255 255
-0.254068 -0.199074 -0.939187 255 255 255
