0.118208 0.074968 -0.849902 255 255 255
0.149723 0.073199 -0.838590 255 255 255
0.086105 0.075632 -0.861259 255 255 255
-0.038996 0.081943 -0.911551 255 255 255
0.023263 0.078732 -0.886419 255 255 255
0.180847 0.070856 -0.827533 255 255 255
0.212604 0.068331 -0.816600 255 255 255
0.244762 0.065528 -0.806753 255 255 255
-0.100912 0.082356 -0.937411 255 255 255
0.276980 0.062210 -0.797344 255 255 255
-0.132207 0.081733 -0.951861 255 255 255
0.309504 0.058766 -0.788525 255 255 255
-0.162586 0.081771 -0.966963 255 255 255
0.147509 0.060513 -0.832805 255 255 255
0.178431 0.058697 -0.822108 255 255 255
-0.191695 0.080865 -0.981855 255 255 255
0.051327 0.064119 -0.867893 255 255 255
0.209757 0.055368 -0.810940 255 255 255
0.082799 0.061681 -0.855217 255 255 255
0.242116 0.053507 -0.801328 255 255 255
0.019364 0.064414 -0.880263 255 255 255
0.275055 0.051033 -0.792170 255 255 255
0.114644 0.058521 -0.842807 255 255 255
-0.221211 0.079961 -0.998248 255 255 255
0.307661 0.048488 -0.783821 255 255 255
-0.011422 0.064697 -0.892096 255 255 255
-0.042165 0.066199 -0.905088 255 255 255
0.339441 0.045007 -0.776658 255 255 255
-0.081841 0.066855 -0.921510 255 255 255
-0.102635 0.068041 -0.931204 255 255 255
-0.250796 0.078384 -1.015117 255 255 255
-0.134091 0.068865 -0.946154 255 255 255
0.373268 0.040609 -0.770431 255 255 255
-0.165020 0.068338 -0.961240 255 255 255
0.177021 0.046025 -0.817863 255 255 255
0.240713 0.040987 -0.797252 255 255 255
0.144797 0.045943 -0.828344 255 255 255
-0.279618 0.075706 -1.032765 255 255 255
0.274005 0.038571 -0.788021 255 255 255
0.207938 0.041787 -0.806699 255 255 255
0.306200 0.036236 -0.779871 255 255 255
-0.194950 0.067211 -0.976431 255 255 255
0.080576 0.047286 -0.850646 255 255 255
0.337953 0.033406 -0.772895 255 255 255
0.372213 0.031334 -0.767353 255 255 255
0.113295 0.044211 -0.838369 255 255 255
0.017420 0.049529 -0.875122 255 255 255
-0.223896 0.066649 -0.992520 255 255 255
-0.307425 0.072577 -1.050622 255 255 255
-0.013393 0.049267 -0.887393 255 255 255
-0.044201 0.050411 -0.900388 255 255 255
-0.084091 0.051945 -0.917264 255 255 255
-0.105725 0.052802 -0.927214 255 255 255
-0.254044 0.063330 -1.009157 255 255 255
-0.136223 0.052597 -0.941215 255 255 255
0.336786 0.022176 -0.770747 255 255 255
0.206835 0.028969 -0.804279 255 255 255
0.405111 0.018237 -0.760674 255 255 255
0.175122 0.030160 -0.814755 255 255 255
-0.167235 0.052048 -0.956404 255 255 255
0.143953 0.029989 -0.825053 255 255 255
-0.282734 0.060427 -1.026621 255 255 255
0.111148 0.029575 -0.835987 255 255 255
-0.197202 0.052047 -0.972045 255 255 255
0.078980 0.030524 -0.847491 255 255 255
-0.225967 0.052715 -0.988390 255 255 255
0.404714 0.009275 -0.759976 255 255 255
0.016421 0.032870 -0.871393 255 255 255
0.370972 0.009874 -0.764460 255 255 255
-0.014648 0.033261 -0.884637 255 255 255
-0.045638 0.034511 -0.897628 255 255 255
-0.255501 0.050541 -1.005466 255 255 255
-0.085179 0.035240 -0.914259 255 255 255
0.205828 0.014378 -0.803327 255 255 255
-0.338138 0.056822 -1.065461 255 255 255
0.404791 0.001070 -0.760019 255 255 255
-0.107344 0.035244 -0.924262 255 255 255
0.174942 0.014025 -0.813366 255 255 255
-0.136182 0.036850 -0.937877 255 255 255
-0.285104 0.048758 -1.024118 255 255 255
0.143141 0.014379 -0.824019 255 255 255
-0.168918 0.035967 -0.953940 255 255 255
-0.365697 0.054097 -1.087499 255 255 255
-0.312626 0.047254 -1.042851 255 255 255
-0.199253 0.036377 -0.969893 255 255 255
0.046360 0.015980 -0.858439 255 255 255
-0.227864 0.036898 -0.985980 255 255 255
0.016087 0.016331 -0.870058 255 255 255
0.371153 -0.009796 -0.765794 255 255 255
0.206231 0.001197 -0.803709 255 255 255
-0.339969 0.045439 -1.062815 255 255 255
-0.015827 0.016855 -0.883975 255 255 255
-0.256773 0.036003 -1.003203 255 255 255
0.174516 0.000033 -0.814078 255 255 255
0.306218 -0.010668 -0.778886 255 255 255
-0.085983 0.018194 -0.913435 255 255 255
0.143259 -0.000128 -0.824593 255 255 255
-0.286337 0.035151 -1.022222 255 255 255
-0.367039 0.042104 -1.084890 255 255 255
-0.107990 0.018152 -0.923473 255 255 255
0.371691 -0.019752 -0.767890 255 255 255
0.078350 0.001591 -0.847165 255 255 255
0.110738 -0.001570 -0.835737 255 255 255
-0.137741 0.018503 -0.937448 255 255 255
-0.314262 0.034112 -1.041475 255 255 255
0.046078 0.002264 -0.859191 255 255 255
0.239626 -0.013364 -0.796633 255 255 255
-0.168554 0.018520 -0.952720 255 255 255
-0.341027 0.033590 -1.061480 255 255 255
-0.199250 0.019040 -0.968801 255 255 255
-0.228452 0.019879 -0.985257 255 255 255
-0.015637 0.000102 -0.885001 255 255 255
-0.257174 0.019361 -1.002487 255 255 255
-0.045541 -0.000133 -0.897698 255 255 255
0.241401 -0.025013 -0.799885 255 255 255
-0.390813 0.031561 -1.106888 255 255 255
-0.286818 0.020638 -1.021755 255 255 255
-0.085429 0.000935 -0.914420 255 255 255
-0.314690 0.021465 -1.041169 255 255 255
0.079004 -0.014361 -0.849693 255 255 255
-0.108109 0.000835 -0.924826 255 255 255
-0.137382 0.002971 -0.938296 255 255 255
0.308148 -0.035434 -0.787898 255 255 255
-0.340816 0.021307 -1.060851 255 255 255
-0.169122 0.003621 -0.954088 255 255 255
-0.199421 0.005359 -0.969856 255 255 255
0.016898 -0.015529 -0.874052 255 255 255
-0.390922 0.022812 -1.106663 255 255 255
-0.257493 0.006453 -1.003781 255 255 255
0.145057 -0.031006 -0.831051 255 255 255
0.243668 -0.040413 -0.806528 255 255 255
-0.044637 -0.016394 -0.900810 255 255 255
0.113271 -0.031830 -0.842729 255 255 255
0.210944 -0.041137 -0.816000 255 255 255
-0.313259 0.007697 -1.041342 255 255 255
-0.286453 0.004991 -1.023172 255 255 255
-0.341288 0.010377 -1.062112 255 255 255
0.081063 -0.030640 -0.854375 255 255 255
-0.367203 0.011798 -1.084309 255 255 255
-0.390711 0.014148 -1.107192 255 255 255
0.177900 -0.042880 -0.826327 255 255 255
-0.136450 -0.013699 -0.941285 255 255 255
0.049537 -0.031649 -0.867091 255 255 255
-0.167814 -0.012771 -0.956739 255 255 255
0.018778 -0.032477 -0.879584 255 255 255
-0.226956 -0.008722 -0.988511 255 255 255
0.146219 -0.045104 -0.836680 255 255 255
-0.256469 -0.007528 -1.006181 255 255 255
0.115907 -0.045900 -0.848753 255 255 255
-0.366440 0.001283 -1.086163 255 255 255
-0.312928 -0.004730 -1.043994 255 255 255
-0.042779 -0.031665 -0.905556 255 255 255
-0.340378 -0.002151 -1.064263 255 255 255
0.084194 -0.045983 -0.861051 255 255 255
0.052599 -0.045970 -0.873607 255 255 255
-0.135102 -0.028521 -0.945847 255 255 255
-0.166535 -0.028012 -0.961274 255 255 255
-0.364857 -0.009455 -1.089229 255 255 255
-0.254987 -0.021483 -1.010695 255 255 255
-0.225552 -0.025094 -0.993818 255 255 255
-0.338380 -0.013645 -1.067739 255 255 255
-0.283262 -0.020577 -1.029517 255 255 255
-0.280117 -0.033482 -1.034825 255 255 255
-0.251322 -0.036728 -1.017487 255 255 255
0.240346 0.244703 -0.914450 255 255 255
-0.189509 0.267782 -1.087407 255 255 255
-0.007942 0.079179 -0.898102 255 255 255
0.054554 0.077062 -0.873660 255 255 255
-0.078738 0.081164 -0.927544 255 255 255
0.342120 0.054736 -0.781091 255 255 255
-0.335081 0.068765 -1.069662 255 255 255
0.374282 0.049160 -0.774640 255 255 255
-0.362415 0.065442 -1.091142 255 255 255
0.407185 0.044054 -0.767889 255 255 255
0.048481 0.048369 -0.862818 255 255 255
-0.309708 0.059571 -1.045249 255 255 255
-0.386102 0.060828 -1.113224 255 255 255
0.406691 0.036366 -0.764623 255 255 255
-0.389263 0.049664 -1.109856 255 255 255
0.046896 0.032554 -0.859713 255 255 255
0.405806 0.027594 -0.762239 255 255 255
-0.390298 0.040370 -1.107823 255 255 255
0.239392 0.027433 -0.794635 255 255 255
0.273012 0.025196 -0.785499 255 255 255
0.305675 0.023133 -0.777408 255 255 255
-0.367470 0.032884 -1.083914 255 255 255
0.371548 0.020331 -0.765227 255 255 255
-0.367427 0.022390 -1.083541 255 255 255
-0.046629 0.017577 -0.896952 255 255 255
0.078588 0.015193 -0.846406 255 255 255
0.110424 0.014738 -0.835039 255 255 255
0.238448 0.012474 -0.793745 255 255 255
0.272930 0.012004 -0.784674 255 255 255
0.305415 0.011133 -0.776689 255 255 255
0.336568 0.010782 -0.769850 255 255 255
-0.228367 0.007265 -0.986070 255 255 255
-0.390055 0.005396 -1.108454 255 255 255
0.015886 0.000862 -0.871072 255 255 255
0.305712 0.000735 -0.777142 255 255 255
0.337000 -0.000047 -0.770143 255 255 255
0.371099 -0.000331 -0.764626 255 255 255
0.272716 -0.000635 -0.785566 255 255 255
0.238836 -0.000903 -0.794437 255 255 255
-0.388891 -0.002771 -1.110167 255 255 255
-0.285691 -0.007673 -1.025905 255 255 255
-0.197983 -0.010718 -0.972340 255 255 255
0.404716 -0.008694 -0.761064 255 255 255
-0.386507 -0.013593 -1.114241 255 255 255
0.337382 -0.011683 -0.771912 255 255 255
0.206779 -0.012437 -0.805791 255 255 255
-0.107031 -0.015022 -0.927692 255 255 255
0.046544 -0.014539 -0.862100 255 255 255
0.272708 -0.013397 -0.788162 255 255 255
-0.310861 -0.017541 -1.047636 255 255 255
-0.084483 -0.015726 -0.917623 255 255 255
-0.014352 -0.015495 -0.887718 255 255 255
-0.362014 -0.019776 -1.092830 255 255 255
0.110800 -0.016208 -0.838430 255 255 255
0.143750 -0.016068 -0.827142 255 255 255
0.174804 -0.016735 -0.817087 255 255 255
0.404760 -0.016383 -0.762478 255 255 255
-0.335610 -0.024970 -1.072202 255 255 255
-0.196263 -0.026056 -0.976943 255 255 255
-0.308320 -0.029996 -1.053210 255 255 255
0.306961 -0.022646 -0.782299 255 255 255
0.338450 -0.023145 -0.775176 255 255 255
-0.105375 -0.030414 -0.932357 255 255 255
0.208373 -0.026346 -0.809629 255 255 255
0.273931 -0.026064 -0.792180 255 255 255
0.405974 -0.026002 -0.765383 255 255 255
-0.082424 -0.032143 -0.922703 255 255 255
0.176356 -0.029980 -0.820878 255 255 255
0.372939 -0.030404 -0.771708 255 255 255
-0.222672 -0.040001 -1.000535 255 255 255
0.339930 -0.033131 -0.779509 255 255 255
-0.193898 -0.041821 -0.984102 255 255 255
-0.163577 -0.043778 -0.967574 255 255 255
-0.133011 -0.045451 -0.953267 255 255 255
-0.102882 -0.045271 -0.938736 255 255 255
-0.080718 -0.046553 -0.929436 255 255 255
-0.039551 -0.046997 -0.912280 255 255 255
0.021463 -0.046120 -0.885958 255 255 255
-0.258626 -0.187337 -0.896421 255 255 255
0.173126 -0.192659 -0.727121 255 255 255
0.275068 -0.038416 -0.796747 255 255 255
