-0.305004 0.256524 -0.950810 255 255 255
0.113386 0.276851 -1.142409 255 255 255
0.090816 0.099622 -1.017764 255 255 255
0.120529 0.101027 -1.032754 255 255 255
0.060760 0.097064 -1.002415 255 255 255
0.149834 0.101825 -1.047693 255 255 255
0.030246 0.095290 -0.988166 255 255 255
0.179486 0.102483 -1.063170 255 255 255
-0.000352 0.093769 -0.974325 255 255 255
-0.061020 0.090657 -0.946568 255 255 255
-0.030012 0.091082 -0.959838 255 255 255
0.208654 0.102875 -1.079700 255 255 255
0.237582 0.102741 -1.096525 255 255 255
-0.099486 0.085882 -0.928958 255 255 255
-0.121751 0.084809 -0.919684 255 255 255
0.266316 0.102520 -1.114011 255 255 255
-0.153395 0.081004 -0.907117 255 255 255
0.294150 0.101676 -1.132543 255 255 255
-0.184923 0.077919 -0.895584 255 255 255
0.124217 0.088442 -1.027828 255 255 255
0.153089 0.089730 -1.042829 255 255 255
0.321071 0.099223 -1.151427 255 255 255
0.182684 0.089564 -1.057863 255 255 255
0.211743 0.090896 -1.074671 255 255 255
0.033250 0.082352 -0.982545 255 255 255
-0.215343 0.074012 -0.884905 255 255 255
0.063987 0.083131 -0.996595 255 255 255
0.240910 0.091667 -1.092162 255 255 255
0.269290 0.092315 -1.109976 255 255 255
0.002579 0.079406 -0.968027 255 255 255
0.094833 0.083224 -1.011154 255 255 255
0.348674 0.097311 -1.170626 255 255 255
0.296317 0.091936 -1.128052 255 255 255
-0.026890 0.076588 -0.953947 255 255 255
-0.247144 0.070029 -0.874972 255 255 255
-0.057260 0.074967 -0.940641 255 255 255
0.324106 0.090792 -1.148230 255 255 255
-0.096090 0.071607 -0.923274 255 255 255
-0.117301 0.070656 -0.914886 255 255 255
0.351310 0.089757 -1.168409 255 255 255
-0.149533 0.068258 -0.902478 255 255 255
-0.279236 0.065349 -0.865295 255 255 255
0.156217 0.077185 -1.039524 255 255 255
0.214746 0.078511 -1.071478 255 255 255
-0.181366 0.064559 -0.890559 255 255 255
0.244209 0.079367 -1.089165 255 255 255
0.126773 0.073905 -1.023526 255 255 255
0.272146 0.080184 -1.106796 255 255 255
0.298960 0.080438 -1.124967 255 255 255
0.326359 0.081617 -1.145838 255 255 255
0.066933 0.068813 -0.992561 255 255 255
-0.311292 0.059631 -0.856809 255 255 255
0.353144 0.081072 -1.166553 255 255 255
-0.212541 0.060355 -0.879482 255 255 255
0.098270 0.069073 -1.007836 255 255 255
0.036240 0.066638 -0.977789 255 255 255
0.006160 0.064635 -0.963838 255 255 255
-0.243774 0.056772 -0.869749 255 255 255
-0.023612 0.061270 -0.950102 255 255 255
-0.053992 0.059281 -0.936749 255 255 255
-0.342774 0.053575 -0.849169 255 255 255
-0.093375 0.056775 -0.919495 255 255 255
0.300630 0.069288 -1.123190 255 255 255
0.328340 0.070742 -1.144420 255 255 255
0.354563 0.071811 -1.165432 255 255 255
-0.115311 0.055412 -0.910689 255 255 255
0.216846 0.065060 -1.069357 255 255 255
0.246449 0.066136 -1.087362 255 255 255
0.274637 0.067249 -1.105349 255 255 255
0.158460 0.061405 -1.036773 255 255 255
-0.275967 0.050335 -0.859628 255 255 255
-0.146108 0.052112 -0.898339 255 255 255
-0.374919 0.046810 -0.842458 255 255 255
-0.178081 0.048381 -0.886447 255 255 255
0.099716 0.054463 -1.005346 255 255 255
0.355527 0.062942 -1.165111 255 255 255
0.069484 0.052166 -0.990057 255 255 255
0.038672 0.050933 -0.975295 255 255 255
0.329350 0.060385 -1.143999 255 255 255
-0.307782 0.044415 -0.851101 255 255 255
-0.209705 0.045270 -0.875615 255 255 255
0.302060 0.058035 -1.122980 255 255 255
0.009504 0.048162 -0.961389 255 255 255
0.275957 0.055390 -1.105267 255 255 255
-0.241099 0.042915 -0.866115 255 255 255
0.248067 0.053096 -1.087338 255 255 255
-0.021203 0.045382 -0.948122 255 255 255
-0.339418 0.040648 -0.844463 255 255 255
-0.408631 0.040508 -0.837650 255 255 255
-0.051706 0.043498 -0.934608 255 255 255
0.218072 0.050213 -1.068786 255 255 255
0.356215 0.054845 -1.165613 255 255 255
-0.273269 0.037656 -0.856663 255 255 255
-0.090611 0.040233 -0.917473 255 255 255
0.160661 0.045478 -1.036449 255 255 255
0.330157 0.050306 -1.144673 255 255 255
-0.112872 0.037985 -0.908349 255 255 255
0.303029 0.047368 -1.123971 255 255 255
-0.373031 0.034842 -0.837964 255 255 255
-0.142404 0.036623 -0.896831 255 255 255
0.276690 0.045128 -1.106275 255 255 255
0.101111 0.039754 -1.004885 255 255 255
-0.440201 0.033234 -0.835945 255 255 255
-0.306655 0.032737 -0.848222 255 255 255
0.356207 0.045165 -1.166748 255 255 255
0.071244 0.037007 -0.989770 255 255 255
0.248319 0.040570 -1.088398 255 255 255
-0.176171 0.032395 -0.884339 255 255 255
0.040571 0.034534 -0.974833 255 255 255
0.330124 0.040929 -1.145952 255 255 255
-0.407349 0.029087 -0.833360 255 255 255
0.218936 0.037011 -1.070155 255 255 255
-0.208292 0.029650 -0.873414 255 255 255
-0.338692 0.028273 -0.841305 255 255 255
0.011570 0.031812 -0.961046 255 255 255
-0.239377 0.027170 -0.863847 255 255 255
0.302967 0.035855 -1.126009 255 255 255
0.355849 0.037536 -1.168108 255 255 255
-0.020212 0.029070 -0.947648 255 255 255
0.276707 0.033861 -1.108359 255 255 255
-0.050535 0.026681 -0.934281 255 255 255
-0.371460 0.023493 -0.835380 255 255 255
-0.271348 0.023222 -0.854897 255 255 255
0.329795 0.031088 -1.148255 255 255 255
-0.439039 0.021995 -0.831901 255 255 255
-0.089185 0.023326 -0.917150 255 255 255
0.247486 0.027884 -1.090768 255 255 255
-0.111371 0.021048 -0.908171 255 255 255
0.355373 0.028069 -1.171410 255 255 255
-0.305043 0.019223 -0.846693 255 255 255
0.040947 0.020924 -0.975800 255 255 255
0.302282 0.024544 -1.129568 255 255 255
-0.405428 0.017181 -0.831181 255 255 255
-0.141674 0.018351 -0.896287 255 255 255
0.275729 0.022003 -1.111815 255 255 255
-0.337738 0.015168 -0.839793 255 255 255
-0.173614 0.015197 -0.884565 255 255 255
0.011962 0.016464 -0.962333 255 255 255
0.328763 0.020574 -1.152278 255 255 255
-0.437543 0.012771 -0.830214 255 255 255
-0.206107 0.012533 -0.873496 255 255 255
-0.370275 0.011720 -0.834279 255 255 255
0.246455 0.015373 -1.095025 255 255 255
-0.019473 0.012491 -0.949297 255 255 255
0.300979 0.014696 -1.134067 255 255 255
0.131980 0.012524 -1.024895 255 255 255
-0.237895 0.010303 -0.863739 255 255 255
0.218721 0.013262 -1.076878 255 255 255
-0.048898 0.009243 -0.936425 255 255 255
-0.404293 0.008051 -0.830648 255 255 255
0.101447 0.009092 -1.008958 255 255 255
-0.269764 0.006757 -0.854898 255 255 255
0.273552 0.009325 -1.117087 255 255 255
-0.088134 0.006285 -0.919065 255 255 255
-0.303877 0.004835 -0.846716 255 255 255
-0.436534 0.004045 -0.829641 255 255 255
-0.111026 0.003876 -0.909844 255 255 255
0.040541 0.004272 -0.978920 255 255 255
-0.140808 0.003006 -0.897895 255 255 255
-0.336822 0.002638 -0.839892 255 255 255
0.244941 0.003154 -1.099552 255 255 255
0.159801 0.001893 -1.044716 255 255 255
-0.173783 0.000379 -0.885814 255 255 255
0.011840 0.000260 -0.965862 255 255 255
-0.368685 -0.000384 -0.834573 255 255 255
-0.205891 -0.001039 -0.874763 255 255 255
-0.237403 -0.002186 -0.864951 255 255 255
0.131265 -0.002230 -1.029226 255 255 255
-0.403157 -0.002307 -0.830927 255 255 255
-0.019276 -0.002894 -0.952796 255 255 255
-0.435711 -0.004610 -0.829801 255 255 255
0.101301 -0.006239 -1.014425 255 255 255
-0.269871 -0.006073 -0.856166 255 255 255
-0.049198 -0.006841 -0.939959 255 255 255
0.070907 -0.008305 -0.999198 255 255 255
-0.088436 -0.010199 -0.922720 255 255 255
-0.303382 -0.010639 -0.848683 255 255 255
-0.334873 -0.010850 -0.841698 255 255 255
-0.111081 -0.011785 -0.913341 255 255 255
0.040389 -0.012517 -0.985267 255 255 255
-0.369039 -0.011268 -0.835619 255 255 255
-0.140987 -0.013478 -0.901413 255 255 255
-0.402716 -0.012780 -0.832129 255 255 255
-0.435265 -0.013160 -0.830737 255 255 255
0.010540 -0.016490 -0.971748 255 255 255
-0.173483 -0.015787 -0.889343 255 255 255
-0.205415 -0.016871 -0.878268 255 255 255
-0.236921 -0.017936 -0.868403 255 255 255
-0.269792 -0.019869 -0.859217 255 255 255
-0.050102 -0.021910 -0.945243 255 255 255
0.069487 -0.023369 -1.006723 255 255 255
-0.435048 -0.021783 -0.832502 255 255 255
-0.303817 -0.023161 -0.851713 255 255 255
-0.335567 -0.023178 -0.844347 255 255 255
0.038950 -0.026588 -0.992613 255 255 255
-0.402696 -0.023148 -0.834451 255 255 255
-0.368977 -0.023630 -0.838352 255 255 255
-0.089371 -0.026387 -0.928461 255 255 255
-0.112066 -0.026984 -0.918459 255 255 255
0.008906 -0.029928 -0.978655 255 255 255
-0.142154 -0.028134 -0.906209 255 255 255
-0.174651 -0.030853 -0.894103 255 255 255
-0.434810 -0.029806 -0.834894 255 255 255
-0.206312 -0.032004 -0.883384 255 255 255
-0.270895 -0.033657 -0.864027 255 255 255
-0.238456 -0.034132 -0.873818 255 255 255
-0.051484 -0.036974 -0.952865 255 255 255
-0.402973 -0.033696 -0.838205 255 255 255
-0.369188 -0.034905 -0.842713 255 255 255
-0.303726 -0.035799 -0.856542 255 255 255
-0.335746 -0.035747 -0.848931 255 255 255
-0.091889 -0.040661 -0.934963 255 255 255
-0.113767 -0.041622 -0.925326 255 255 255
-0.435279 -0.040390 -0.839921 255 255 255
-0.144704 -0.044885 -0.913596 255 255 255
-0.402802 -0.043736 -0.843186 255 255 255
-0.175916 -0.046343 -0.901300 255 255 255
-0.208593 -0.047567 -0.890737 255 255 255
-0.369621 -0.045967 -0.848291 255 255 255
-0.240139 -0.048788 -0.881206 255 255 255
-0.272069 -0.048578 -0.872044 255 255 255
-0.337040 -0.047979 -0.855182 255 255 255
-0.304359 -0.048408 -0.863035 255 255 255
0.239361 -0.154890 -0.983973 255 255 255
-0.176647 -0.192985 -0.788882 255 255 255
0.185615 0.076081 -1.054306 255 255 255
0.187657 0.063372 -1.052441 255 255 255
0.129870 0.058141 -1.021423 255 255 255
0.188855 0.048889 -1.051755 255 255 255
0.131330 0.042662 -1.020894 255 255 255
0.189933 0.035885 -1.052949 255 255 255
0.160997 0.031585 -1.037328 255 255 255
0.132177 0.028313 -1.022062 255 255 255
0.071640 0.023515 -0.990775 255 255 255
0.102148 0.023638 -1.006379 255 255 255
0.218902 0.024701 -1.072839 255 255 255
0.189921 0.022396 -1.055417 255 255 255
0.160394 0.014952 -1.040376 255 255 255
0.071568 0.007725 -0.993709 255 255 255
0.189378 0.008692 -1.059850 255 255 255
0.216734 -0.001925 -1.083787 255 255 255
0.187742 -0.005863 -1.066760 255 255 255
0.157972 -0.010862 -1.050190 255 255 255
0.129157 -0.016210 -1.034588 255 255 255
0.099914 -0.020069 -1.021111 255 255 255
