0.212196 0.223800 -1.047621 255 255 255
-0.246267 0.227392 -1.049179 255 255 255
0.149052 0.063337 -0.949354 255 255 255
0.107294 0.064417 -0.945282 255 255 255
0.190089 0.060876 -0.953153 255 255 255
0.064493 0.065058 -0.941567 255 255 255
0.230544 0.058769 -0.958086 255 255 255
0.271050 0.056269 -0.963967 255 255 255
0.024465 0.065457 -0.938933 255 255 255
-0.016462 0.065911 -0.936719 255 255 255
0.312828 0.052943 -0.971817 255 255 255
-0.058565 0.066182 -0.935062 255 255 255
-0.100765 0.065828 -0.933806 255 255 255
-0.138389 0.065844 -0.933806 255 255 255
-0.179158 0.064397 -0.934362 255 255 255
0.231766 0.047830 -0.952301 255 255 255
0.190516 0.049265 -0.947121 255 255 255
-0.220175 0.062306 -0.936576 255 255 255
0.149828 0.050262 -0.942512 255 255 255
0.314060 0.043000 -0.966889 255 255 255
0.107747 0.051657 -0.938428 255 255 255
0.272511 0.044938 -0.958152 255 255 255
0.065395 0.052094 -0.934623 255 255 255
0.025163 0.052404 -0.931732 255 255 255
0.353623 0.038167 -0.977137 255 255 255
-0.256971 0.059296 -0.939386 255 255 255
0.395068 0.035248 -0.986898 255 255 255
-0.016408 0.051601 -0.929165 255 255 255
-0.057995 0.051142 -0.926900 255 255 255
-0.298402 0.056373 -0.944013 255 255 255
-0.100692 0.051770 -0.926294 255 255 255
-0.138162 0.051735 -0.926608 255 255 255
-0.179300 0.050090 -0.927062 255 255 255
0.314958 0.031068 -0.962603 255 255 255
0.273700 0.032940 -0.953782 255 255 255
0.232912 0.034465 -0.947069 255 255 255
0.395862 0.025182 -0.983956 255 255 255
0.355406 0.027181 -0.973464 255 255 255
-0.220578 0.048708 -0.929189 255 255 255
0.191418 0.034868 -0.941711 255 255 255
0.150927 0.035493 -0.936848 255 255 255
-0.257487 0.047349 -0.932880 255 255 255
0.108996 0.036218 -0.932391 255 255 255
0.066680 0.036990 -0.928602 255 255 255
-0.299151 0.044734 -0.937727 255 255 255
0.025799 0.036575 -0.925249 255 255 255
-0.015622 0.036475 -0.923228 255 255 255
0.396700 0.016022 -0.982252 255 255 255
0.355881 0.017951 -0.971083 255 255 255
-0.057188 0.035499 -0.920783 255 255 255
0.315888 0.019401 -0.959978 255 255 255
-0.099634 0.035763 -0.920054 255 255 255
-0.340502 0.039713 -0.943485 255 255 255
0.274800 0.020043 -0.950779 255 255 255
-0.137836 0.035486 -0.920336 255 255 255
0.233463 0.020932 -0.943833 255 255 255
-0.179068 0.035086 -0.921220 255 255 255
0.192454 0.020458 -0.938210 255 255 255
-0.220662 0.033832 -0.923063 255 255 255
-0.380806 0.034919 -0.950299 255 255 255
0.109253 0.022516 -0.928866 255 255 255
-0.257626 0.033118 -0.926959 255 255 255
0.151046 0.019691 -0.933109 255 255 255
0.396797 0.006655 -0.981001 255 255 255
-0.299721 0.030879 -0.931903 255 255 255
0.067563 0.021220 -0.924513 255 255 255
-0.421561 0.030576 -0.960586 255 255 255
0.357039 0.006575 -0.969705 255 255 255
0.316622 0.007479 -0.958682 255 255 255
0.026153 0.020240 -0.921142 255 255 255
-0.340430 0.027505 -0.938609 255 255 255
-0.015478 0.020157 -0.919107 255 255 255
0.275246 0.007553 -0.949499 255 255 255
-0.056914 0.019761 -0.917013 255 255 255
0.234453 0.007749 -0.942382 255 255 255
0.396595 -0.002743 -0.980550 255 255 255
-0.100002 0.019767 -0.916149 255 255 255
-0.381375 0.022748 -0.945717 255 255 255
-0.137693 0.019261 -0.916455 255 255 255
0.192600 0.006245 -0.936630 255 255 255
-0.421962 0.020337 -0.957080 255 255 255
-0.178840 0.018731 -0.917130 255 255 255
0.357097 -0.004298 -0.969341 255 255 255
-0.220913 0.017800 -0.919153 255 255 255
0.151431 0.005431 -0.931565 255 255 255
-0.258081 0.017525 -0.923017 255 255 255
0.316531 -0.003965 -0.958579 255 255 255
-0.299804 0.016907 -0.928368 255 255 255
0.109756 0.005399 -0.926685 255 255 255
-0.340727 0.014903 -0.935332 255 255 255
0.396774 -0.012759 -0.980979 255 255 255
0.067850 0.004720 -0.922595 255 255 255
0.275605 -0.005189 -0.949846 255 255 255
0.026361 0.004226 -0.919269 255 255 255
0.357515 -0.012991 -0.970034 255 255 255
-0.381816 0.010884 -0.943016 255 255 255
0.233530 -0.006652 -0.942342 255 255 255
-0.015330 0.004047 -0.917126 255 255 255
-0.422167 0.009196 -0.954781 255 255 255
-0.057557 0.003981 -0.915196 255 255 255
0.193457 -0.007965 -0.936956 255 255 255
-0.099057 0.003156 -0.914311 255 255 255
0.315883 -0.015552 -0.959614 255 255 255
0.395756 -0.022069 -0.981609 255 255 255
-0.137526 0.002956 -0.914645 255 255 255
-0.178663 0.003422 -0.915374 255 255 255
0.151128 -0.008535 -0.931617 255 255 255
-0.220439 0.003209 -0.917397 255 255 255
-0.258008 0.002718 -0.921148 255 255 255
0.109820 -0.009451 -0.926717 255 255 255
0.275449 -0.017925 -0.951552 255 255 255
-0.299587 0.001806 -0.926459 255 255 255
0.356573 -0.024104 -0.971587 255 255 255
-0.340895 0.001160 -0.933549 255 255 255
-0.381821 -0.000282 -0.941826 255 255 255
-0.422037 -0.001208 -0.953620 255 255 255
0.068498 -0.011058 -0.922796 255 255 255
0.234455 -0.020563 -0.944570 255 255 255
0.026708 -0.011851 -0.919447 255 255 255
0.314969 -0.027188 -0.962312 255 255 255
-0.015125 -0.012405 -0.917270 255 255 255
0.192902 -0.022182 -0.938889 255 255 255
-0.056211 -0.012987 -0.915400 255 255 255
0.275236 -0.029743 -0.954820 255 255 255
-0.099407 -0.013262 -0.914588 255 255 255
0.150766 -0.024136 -0.933520 255 255 255
-0.421493 -0.012168 -0.953500 255 255 255
-0.137053 -0.013660 -0.914935 255 255 255
-0.381455 -0.011685 -0.941780 255 255 255
-0.178553 -0.012801 -0.915416 255 255 255
-0.298939 -0.012202 -0.926453 255 255 255
-0.257657 -0.013302 -0.921008 255 255 255
-0.220169 -0.014021 -0.917671 255 255 255
-0.340290 -0.014192 -0.933526 255 255 255
0.109387 -0.026200 -0.928905 255 255 255
0.233100 -0.033340 -0.948255 255 255 255
0.313629 -0.038911 -0.966685 255 255 255
0.068305 -0.027895 -0.925147 255 255 255
0.192686 -0.035585 -0.942613 255 255 255
0.026736 -0.028673 -0.921845 255 255 255
-0.420804 -0.023024 -0.954519 255 255 255
0.274496 -0.042835 -0.960451 255 255 255
-0.014878 -0.029128 -0.919349 255 255 255
-0.380670 -0.024571 -0.943200 255 255 255
0.150068 -0.038551 -0.936858 255 255 255
-0.098938 -0.029666 -0.916850 255 255 255
-0.298395 -0.026922 -0.928354 255 255 255
-0.339624 -0.027670 -0.935457 255 255 255
0.232884 -0.046439 -0.953964 255 255 255
-0.137361 -0.029970 -0.917289 255 255 255
-0.178137 -0.029095 -0.917607 255 255 255
-0.257186 -0.028576 -0.923330 255 255 255
-0.220103 -0.029047 -0.919957 255 255 255
0.109133 -0.041768 -0.933121 255 255 255
-0.420057 -0.033118 -0.956815 255 255 255
0.192019 -0.049509 -0.948298 255 255 255
0.068260 -0.043435 -0.929691 255 255 255
-0.379675 -0.036182 -0.946213 255 255 255
0.005912 -0.044033 -0.924519 255 255 255
-0.015031 -0.044052 -0.923015 255 255 255
0.150013 -0.052577 -0.941898 255 255 255
-0.338172 -0.039571 -0.938340 255 255 255
-0.036710 -0.045520 -0.922813 255 255 255
-0.296978 -0.041378 -0.932209 255 255 255
-0.219415 -0.043338 -0.923988 255 255 255
0.108587 -0.054890 -0.938406 255 255 255
-0.256436 -0.043373 -0.927651 255 255 255
-0.099073 -0.046244 -0.921570 255 255 255
-0.136711 -0.046628 -0.921967 255 255 255
-0.177589 -0.045755 -0.922162 255 255 255
0.067825 -0.056402 -0.935072 255 255 255
0.026991 -0.058121 -0.932256 255 255 255
0.006421 -0.059419 -0.931341 255 255 255
-0.295617 -0.054903 -0.937829 255 255 255
-0.035667 -0.061141 -0.929566 255 255 255
-0.056383 -0.060874 -0.928732 255 255 255
-0.255470 -0.056961 -0.933487 255 255 255
-0.098522 -0.060551 -0.927719 255 255 255
-0.218447 -0.058085 -0.930587 255 255 255
-0.136063 -0.060491 -0.927838 255 255 255
-0.176305 -0.059751 -0.928419 255 255 255
0.006521 -0.075552 -0.942427 255 255 255
-0.034831 -0.078809 -0.941880 255 255 255
0.147176 -0.190567 -0.993870 255 255 255
-0.311257 -0.186981 -0.982213 255 255 255
-0.056277 -0.029879 -0.917788 255 255 255
0.006839 -0.090236 -0.957368 255 255 255
0.353611 0.047563 -0.981761 255 255 255
0.394353 0.043047 -0.990683 255 255 255
0.433328 0.036483 -1.002405 255 255 255
-0.339637 0.051886 -0.949788 255 255 255
0.433980 0.028548 -0.999176 255 255 255
-0.379899 0.046085 -0.956268 255 255 255
0.434725 0.020430 -0.997221 255 255 255
0.435488 0.011820 -0.995507 255 255 255
-0.420256 0.040359 -0.965340 255 255 255
0.435314 0.003028 -0.994321 255 255 255
-0.459865 0.030191 -0.977660 255 255 255
0.435433 -0.006577 -0.994404 255 255 255
0.434917 -0.015912 -0.995421 255 255 255
-0.461238 0.022753 -0.974354 255 255 255
0.434207 -0.022966 -0.997922 255 255 255
-0.462297 0.014751 -0.971645 255 255 255
0.395086 -0.030289 -0.984036 255 255 255
0.356019 -0.035064 -0.975265 255 255 255
-0.462892 0.005737 -0.969630 255 255 255
-0.462780 -0.002793 -0.968643 255 255 255
0.006207 -0.028652 -0.920360 255 255 255
-0.035853 -0.028989 -0.918311 255 255 255
-0.462752 -0.011578 -0.968811 255 255 255
0.026906 -0.044592 -0.926519 255 255 255
-0.461654 -0.020236 -0.969720 255 255 255
-0.056228 -0.046074 -0.922350 255 255 255
-0.460670 -0.029237 -0.971893 255 255 255
-0.458855 -0.037045 -0.974669 255 255 255
-0.418644 -0.043806 -0.960737 255 255 255
0.026780 -0.075524 -0.944274 255 255 255
-0.377585 -0.048575 -0.951244 255 255 255
-0.336771 -0.052311 -0.943346 255 255 255
-0.056452 -0.077784 -0.940110 255 255 255
0.027364 -0.088943 -0.957761 255 255 255
-0.034916 -0.092127 -0.954736 255 255 255
-0.056483 -0.093331 -0.954421 255 255 255
