0.197459 0.257348 -1.025810 255 255 255
-0.258464 0.243591 -1.021456 255 255 255
0.100492 0.091842 -0.926043 255 255 255
0.141998 0.092399 -0.930606 255 255 255
0.057985 0.090859 -0.921726 255 255 255
0.182810 0.091502 -0.935010 255 255 255
0.018236 0.089691 -0.918639 255 255 255
-0.022419 0.088670 -0.915742 255 255 255
0.223017 0.090946 -0.940491 255 255 255
-0.064234 0.087252 -0.913590 255 255 255
0.263253 0.090044 -0.946941 255 255 255
-0.106141 0.085308 -0.911744 255 255 255
0.304773 0.088518 -0.955263 255 255 255
-0.143554 0.083848 -0.911411 255 255 255
-0.184010 0.080868 -0.911458 255 255 255
0.345365 0.084993 -0.965696 255 255 255
0.101497 0.079115 -0.919396 255 255 255
0.143340 0.079379 -0.923958 255 255 255
0.183754 0.079914 -0.929196 255 255 255
0.224725 0.080121 -0.934782 255 255 255
0.059434 0.077877 -0.915118 255 255 255
-0.224711 0.077174 -0.913170 255 255 255
0.385969 0.082402 -0.974809 255 255 255
0.019524 0.076685 -0.911662 255 255 255
0.265228 0.078820 -0.941248 255 255 255
0.306450 0.078634 -0.950498 255 255 255
-0.021690 0.074343 -0.908478 255 255 255
-0.062947 0.072301 -0.905593 255 255 255
-0.261210 0.072846 -0.915496 255 255 255
-0.105408 0.071307 -0.904406 255 255 255
0.345777 0.075561 -0.961322 255 255 255
0.424587 0.077280 -0.987652 255 255 255
-0.142665 0.069813 -0.904278 255 255 255
0.387043 0.074638 -0.971156 255 255 255
-0.302356 0.068559 -0.919539 255 255 255
-0.183505 0.066585 -0.904333 255 255 255
0.226457 0.066895 -0.929722 255 255 255
0.266966 0.067078 -0.936921 255 255 255
0.185237 0.065638 -0.923988 255 255 255
-0.224517 0.063697 -0.905796 255 255 255
0.145060 0.064771 -0.918460 255 255 255
0.307775 0.066806 -0.946658 255 255 255
0.425569 0.069389 -0.984580 255 255 255
0.103386 0.063840 -0.913507 255 255 255
0.061351 0.062949 -0.909290 255 255 255
-0.343303 0.062761 -0.924668 255 255 255
0.020798 0.060990 -0.905418 255 255 255
0.347998 0.064718 -0.957859 255 255 255
-0.261227 0.061015 -0.908986 255 255 255
0.388128 0.064547 -0.968755 255 255 255
-0.020192 0.059322 -0.902888 255 255 255
-0.061439 0.056794 -0.899755 255 255 255
-0.302618 0.056949 -0.913348 255 255 255
0.426485 0.061266 -0.982886 255 255 255
-0.103647 0.055451 -0.898389 255 255 255
-0.141629 0.053713 -0.898159 255 255 255
-0.383214 0.055616 -0.930682 255 255 255
0.309211 0.055304 -0.944118 255 255 255
0.268572 0.054314 -0.934127 255 255 255
0.348850 0.055561 -0.955657 255 255 255
-0.182642 0.051710 -0.898626 255 255 255
0.227562 0.053522 -0.926578 255 255 255
0.389274 0.055457 -0.967286 255 255 255
0.186864 0.051439 -0.920496 255 255 255
-0.343656 0.050584 -0.918510 255 255 255
0.104186 0.050275 -0.910162 255 255 255
-0.223948 0.049004 -0.899642 255 255 255
0.145817 0.049125 -0.914869 255 255 255
0.427665 0.052830 -0.981068 255 255 255
0.062846 0.047360 -0.905362 255 255 255
-0.260777 0.046953 -0.903033 255 255 255
-0.423319 0.048759 -0.939010 255 255 255
0.021787 0.044817 -0.901496 255 255 255
-0.383656 0.044483 -0.924730 255 255 255
-0.019324 0.043153 -0.898978 255 255 255
-0.302649 0.043265 -0.907436 255 255 255
0.389735 0.046151 -0.966166 255 255 255
0.350457 0.044313 -0.954422 255 255 255
-0.060502 0.041200 -0.896191 255 255 255
0.310430 0.043510 -0.942899 255 255 255
0.428003 0.044166 -0.979622 255 255 255
0.269509 0.041930 -0.932971 255 255 255
-0.103376 0.039585 -0.894641 255 255 255
0.229075 0.040486 -0.925239 255 255 255
-0.343097 0.038464 -0.913755 255 255 255
-0.140849 0.037625 -0.894515 255 255 255
-0.424242 0.038996 -0.934286 255 255 255
0.187612 0.037381 -0.918982 255 255 255
-0.181757 0.035541 -0.894601 255 255 255
-0.462530 0.037384 -0.950888 255 255 255
0.146757 0.035003 -0.913442 255 255 255
0.389899 0.036828 -0.965789 255 255 255
-0.223593 0.033116 -0.895828 255 255 255
0.105377 0.033338 -0.908091 255 255 255
-0.383785 0.032451 -0.920101 255 255 255
-0.260634 0.031503 -0.899189 255 255 255
0.428604 0.034640 -0.979579 255 255 255
0.350957 0.033538 -0.954060 255 255 255
0.063777 0.031036 -0.903574 255 255 255
0.310799 0.032175 -0.942814 255 255 255
-0.302194 0.029414 -0.903961 255 255 255
0.022600 0.028971 -0.899718 255 255 255
-0.463628 0.029936 -0.947639 255 255 255
-0.424194 0.028766 -0.931024 255 255 255
0.270371 0.029304 -0.933324 255 255 255
-0.018534 0.027215 -0.897021 255 255 255
-0.342926 0.026003 -0.910435 255 255 255
-0.060531 0.025562 -0.894524 255 255 255
0.228733 0.026191 -0.925195 255 255 255
0.390511 0.026906 -0.966110 255 255 255
-0.101788 0.023160 -0.892981 255 255 255
0.351722 0.024957 -0.954695 255 255 255
0.428401 0.025416 -0.980776 255 255 255
0.189022 0.023358 -0.919376 255 255 255
-0.140050 0.021491 -0.892699 255 255 255
-0.464404 0.021958 -0.944962 255 255 255
-0.180978 0.020397 -0.892829 255 255 255
0.147004 0.021170 -0.913561 255 255 255
-0.383773 0.020663 -0.917552 255 255 255
0.310641 0.020656 -0.943612 255 255 255
-0.222577 0.018677 -0.894133 255 255 255
0.106031 0.018622 -0.908198 255 255 255
-0.423931 0.017666 -0.929018 255 255 255
-0.260001 0.016838 -0.897371 255 255 255
0.427804 0.018506 -0.983566 255 255 255
0.389870 0.017642 -0.966693 255 255 255
0.270719 0.016659 -0.934924 255 255 255
0.065039 0.015439 -0.903756 255 255 255
-0.301406 0.014463 -0.902128 255 255 255
0.023580 0.013070 -0.899886 255 255 255
-0.464673 0.012983 -0.943058 255 255 255
0.351230 0.013898 -0.956090 255 255 255
-0.342594 0.012380 -0.908709 255 255 255
0.230181 0.012462 -0.927439 255 255 255
-0.017764 0.010919 -0.897146 255 255 255
-0.383363 0.009578 -0.916518 255 255 255
-0.058588 0.008822 -0.894844 255 255 255
0.188986 0.009272 -0.921289 255 255 255
0.310163 0.009116 -0.946320 255 255 255
0.389446 0.009507 -0.969276 255 255 255
-0.423430 0.007348 -0.927918 255 255 255
-0.101525 0.006889 -0.893389 255 255 255
0.147224 0.005748 -0.915681 255 255 255
-0.138992 0.005055 -0.893151 255 255 255
-0.464257 0.004529 -0.942114 255 255 255
-0.180298 0.004338 -0.893000 255 255 255
0.270929 0.004963 -0.938204 255 255 255
0.351002 0.003083 -0.959968 255 255 255
-0.221704 0.001641 -0.894544 255 255 255
0.106246 0.002044 -0.910372 255 255 255
-0.259101 0.000975 -0.897386 255 255 255
-0.300260 0.000599 -0.902247 255 255 255
0.229240 -0.000154 -0.931319 255 255 255
-0.382595 -0.001715 -0.916451 255 255 255
0.065505 -0.001241 -0.906011 255 255 255
-0.341440 -0.002804 -0.908797 255 255 255
-0.422504 -0.003496 -0.927780 255 255 255
0.309213 -0.002550 -0.950700 255 255 255
-0.463909 -0.004180 -0.942325 255 255 255
0.024239 -0.003574 -0.902279 255 255 255
0.189238 -0.003939 -0.925148 255 255 255
0.003872 -0.004336 -0.900475 255 255 255
-0.016998 -0.005625 -0.899091 255 255 255
-0.037819 -0.006234 -0.898037 255 255 255
-0.058109 -0.007885 -0.897269 255 255 255
0.270585 -0.007976 -0.943935 255 255 255
0.147052 -0.008531 -0.919028 255 255 255
-0.100493 -0.009314 -0.895761 255 255 255
-0.138739 -0.011074 -0.895610 255 255 255
-0.462470 -0.012690 -0.943233 255 255 255
-0.179350 -0.011754 -0.895303 255 255 255
-0.221127 -0.013199 -0.897048 255 255 255
0.229418 -0.013064 -0.937146 255 255 255
-0.421506 -0.014255 -0.928698 255 255 255
0.106554 -0.013365 -0.914557 255 255 255
-0.299218 -0.013931 -0.904245 255 255 255
-0.381372 -0.014440 -0.917974 255 255 255
-0.258071 -0.014086 -0.899802 255 255 255
-0.340297 -0.016093 -0.910896 255 255 255
0.066035 -0.016620 -0.910530 255 255 255
0.188986 -0.017648 -0.931119 255 255 255
0.024996 -0.019321 -0.906853 255 255 255
0.004144 -0.019596 -0.904455 255 255 255
-0.461115 -0.021489 -0.945639 255 255 255
-0.016653 -0.020431 -0.902654 255 255 255
0.147461 -0.022405 -0.924121 255 255 255
-0.038161 -0.022649 -0.902414 255 255 255
-0.420466 -0.024243 -0.930990 255 255 255
-0.057552 -0.023913 -0.901800 255 255 255
-0.379985 -0.025848 -0.921122 255 255 255
-0.100126 -0.025728 -0.900471 255 255 255
0.106439 -0.026371 -0.919916 255 255 255
-0.338467 -0.027796 -0.913892 255 255 255
-0.219957 -0.027280 -0.901186 255 255 255
-0.458995 -0.029077 -0.948593 255 255 255
-0.137573 -0.027529 -0.900332 255 255 255
-0.297320 -0.028142 -0.908297 255 255 255
-0.178277 -0.028216 -0.899902 255 255 255
-0.256832 -0.028613 -0.904411 255 255 255
0.066034 -0.029508 -0.915906 255 255 255
0.025523 -0.032705 -0.912654 255 255 255
-0.418726 -0.034756 -0.935072 255 255 255
0.005109 -0.034688 -0.911608 255 255 255
-0.377510 -0.037956 -0.926461 255 255 255
-0.036659 -0.037968 -0.909456 255 255 255
-0.057260 -0.038471 -0.908415 255 255 255
-0.336658 -0.040284 -0.919125 255 255 255
-0.099153 -0.039763 -0.906866 255 255 255
-0.295543 -0.041396 -0.914198 255 255 255
-0.136504 -0.041100 -0.906573 255 255 255
-0.218528 -0.041601 -0.908328 255 255 255
-0.255455 -0.041899 -0.910605 255 255 255
-0.176564 -0.041814 -0.906673 255 255 255
0.025746 -0.049622 -0.925060 255 255 255
0.005616 -0.050407 -0.923089 255 255 255
-0.056876 -0.054819 -0.920332 255 255 255
-0.035332 -0.055052 -0.922288 255 255 255
0.026631 -0.062352 -0.938927 255 255 255
0.006243 -0.064191 -0.938519 255 255 255
-0.035129 -0.067770 -0.935540 255 255 255
0.149172 -0.157717 -0.977381 255 255 255
-0.306454 -0.171791 -0.960320 255 255 255
