-0.067033 0.069160 -0.981816 255 255 255
-0.145887 0.064368 -0.980552 255 255 255
-0.108708 0.066496 -0.980480 255 255 255
-0.025435 0.071319 -0.983463 255 255 255
0.015016 0.073043 -0.985876 255 255 255
-0.186079 0.060708 -0.981048 255 255 255
0.054569 0.074886 -0.988523 255 255 255
0.096880 0.076601 -0.992337 255 255 255
0.138203 0.077862 -0.996426 255 255 255
-0.226480 0.056280 -0.983355 255 255 255
0.178865 0.077665 -1.000336 255 255 255
-0.262687 0.051322 -0.986092 255 255 255
0.218924 0.077801 -1.005336 255 255 255
-0.303513 0.046351 -0.990505 255 255 255
0.259056 0.077630 -1.011249 255 255 255
0.016445 0.060117 -0.978920 255 255 255
0.056159 0.061989 -0.981944 255 255 255
-0.107809 0.052578 -0.973154 255 255 255
-0.024549 0.057066 -0.976283 255 255 255
0.098025 0.063952 -0.985711 255 255 255
-0.144841 0.050427 -0.973460 255 255 255
0.300501 0.076852 -1.018971 255 255 255
-0.065582 0.054304 -0.973876 255 255 255
0.139685 0.064945 -0.989779 255 255 255
-0.344102 0.039869 -0.996027 255 255 255
-0.185407 0.046512 -0.973961 255 255 255
0.179942 0.066171 -0.994503 255 255 255
0.220762 0.067092 -0.999591 255 255 255
-0.226139 0.042907 -0.975967 255 255 255
0.341089 0.074031 -1.028902 255 255 255
-0.262567 0.039583 -0.979555 255 255 255
0.261152 0.066512 -1.005532 255 255 255
0.302276 0.067047 -1.014206 255 255 255
-0.303640 0.034820 -0.984291 255 255 255
0.341609 0.064665 -1.024541 255 255 255
0.058251 0.047170 -0.976109 255 255 255
0.017910 0.044512 -0.972712 255 255 255
0.100091 0.048805 -0.979854 255 255 255
-0.022851 0.042134 -0.970702 255 255 255
0.141586 0.050461 -0.984249 255 255 255
0.382829 0.064467 -1.033808 255 255 255
-0.344310 0.027758 -0.989880 255 255 255
0.181604 0.052018 -0.989264 255 255 255
0.222651 0.053992 -0.994461 255 255 255
-0.063867 0.038898 -0.968039 255 255 255
-0.105839 0.036837 -0.967151 255 255 255
0.263028 0.054877 -1.001148 255 255 255
-0.143587 0.034447 -0.967314 255 255 255
-0.184355 0.031729 -0.968296 255 255 255
0.303759 0.055310 -1.010370 255 255 255
-0.225382 0.028319 -0.969809 255 255 255
-0.261940 0.025625 -0.973584 255 255 255
-0.383955 0.020978 -0.996492 255 255 255
0.343964 0.053927 -1.021010 255 255 255
0.384052 0.054453 -1.031373 255 255 255
-0.303503 0.021218 -0.978402 255 255 255
0.101087 0.035329 -0.976445 255 255 255
-0.424141 0.014789 -1.006393 255 255 255
0.223941 0.040720 -0.991241 255 255 255
0.264809 0.042225 -0.998265 255 255 255
0.183428 0.037936 -0.985732 255 255 255
0.305361 0.043897 -1.007777 255 255 255
0.059964 0.031700 -0.972154 255 255 255
-0.343588 0.015721 -0.985118 255 255 255
0.142567 0.034918 -0.980612 255 255 255
0.344942 0.044837 -1.018772 255 255 255
0.019119 0.028435 -0.968809 255 255 255
0.385331 0.045424 -1.029864 255 255 255
-0.021741 0.026057 -0.966793 255 255 255
-0.062704 0.023412 -0.964465 255 255 255
-0.105329 0.021066 -0.963385 255 255 255
-0.142570 0.018472 -0.963625 255 255 255
0.423800 0.043455 -1.043197 255 255 255
-0.383919 0.009011 -0.991876 255 255 255
-0.183221 0.015678 -0.964221 255 255 255
-0.224796 0.012535 -0.965976 255 255 255
-0.261568 0.010280 -0.969685 255 255 255
0.385943 0.036181 -1.028729 255 255 255
0.306760 0.032203 -1.006466 255 255 255
0.265952 0.029929 -0.997066 255 255 255
0.346730 0.033676 -1.017485 255 255 255
-0.423935 0.004614 -1.003124 255 255 255
0.225668 0.027786 -0.989862 255 255 255
-0.302845 0.007469 -0.974893 255 255 255
0.424257 0.034852 -1.041682 255 255 255
0.184395 0.023979 -0.984114 255 255 255
0.143745 0.020897 -0.979111 255 255 255
-0.343239 0.003338 -0.981783 255 255 255
0.102538 0.018508 -0.974300 255 255 255
0.061154 0.015480 -0.970321 255 255 255
0.386268 0.026906 -1.028289 255 255 255
0.020185 0.012693 -0.966987 255 255 255
-0.020690 0.010221 -0.964824 255 255 255
0.347413 0.022978 -1.017062 255 255 255
-0.062470 0.007858 -0.962761 255 255 255
0.307333 0.020940 -1.006326 255 255 255
-0.383732 -0.002701 -0.989294 255 255 255
0.425019 0.025384 -1.041550 255 255 255
-0.103476 0.004762 -0.961674 255 255 255
0.267042 0.017391 -0.997328 255 255 255
-0.141523 0.002441 -0.961795 255 255 255
-0.423515 -0.006419 -1.001138 255 255 255
-0.182205 0.000637 -0.962411 255 255 255
0.225570 0.013578 -0.989740 255 255 255
-0.223544 -0.001802 -0.964206 255 255 255
0.186064 0.010056 -0.984448 255 255 255
-0.260712 -0.004291 -0.967829 255 255 255
0.387056 0.017052 -1.028545 255 255 255
0.348334 0.014454 -1.017631 255 255 255
0.144235 0.007141 -0.979177 255 255 255
-0.301831 -0.007394 -0.973029 255 255 255
-0.463777 -0.011821 -1.015427 255 255 255
0.103459 0.003893 -0.974321 255 255 255
-0.342697 -0.010205 -0.980028 255 255 255
0.307394 0.009477 -1.007064 255 255 255
0.062683 -0.000006 -0.970442 255 255 255
-0.383139 -0.013720 -0.988208 255 255 255
0.267634 0.004826 -0.998844 255 255 255
0.021442 -0.003104 -0.967110 255 255 255
0.386595 0.007829 -1.029075 255 255 255
-0.422854 -0.016673 -1.000022 255 255 255
-0.019634 -0.005968 -0.964885 255 255 255
0.227297 -0.000059 -0.991877 255 255 255
0.348062 0.003448 -1.018945 255 255 255
-0.060233 -0.008757 -0.962991 255 255 255
-0.463221 -0.020226 -1.014450 255 255 255
-0.102930 -0.011416 -0.961994 255 255 255
0.186316 -0.003950 -0.986285 255 255 255
-0.140174 -0.013900 -0.962186 255 255 255
0.307156 -0.002018 -1.009718 255 255 255
-0.181243 -0.015320 -0.962474 255 255 255
0.144761 -0.008201 -0.981194 255 255 255
-0.222381 -0.018744 -0.964550 255 255 255
0.268097 -0.006822 -1.002062 255 255 255
-0.300451 -0.021159 -0.973081 255 255 255
0.104003 -0.012604 -0.976396 255 255 255
0.348084 -0.007338 -1.022789 255 255 255
-0.382194 -0.024944 -0.988126 255 255 255
-0.341288 -0.025284 -0.980049 255 255 255
-0.421770 -0.027452 -0.999866 255 255 255
0.226639 -0.012639 -0.995706 255 255 255
0.063475 -0.016598 -0.972576 255 255 255
-0.462728 -0.028882 -1.014648 255 255 255
0.306483 -0.013653 -1.014040 255 255 255
0.002164 -0.020760 -0.967861 255 255 255
0.186853 -0.017117 -0.990055 255 255 255
-0.018571 -0.022420 -0.966710 255 255 255
-0.039280 -0.023375 -0.965853 255 255 255
0.268060 -0.019717 -1.007732 255 255 255
0.144899 -0.022418 -0.984442 255 255 255
-0.101592 -0.027525 -0.964282 255 255 255
-0.139608 -0.029941 -0.964535 255 255 255
-0.179999 -0.031323 -0.964692 255 255 255
-0.221522 -0.033500 -0.966949 255 255 255
0.227127 -0.025498 -1.001469 255 255 255
0.104642 -0.027955 -0.980456 255 255 255
-0.420574 -0.038143 -1.000733 255 255 255
-0.299140 -0.035604 -0.975006 255 255 255
-0.380743 -0.037586 -0.989594 255 255 255
-0.258236 -0.035034 -0.970109 255 255 255
-0.339900 -0.038489 -0.982069 255 255 255
0.064346 -0.031919 -0.976954 255 255 255
0.186925 -0.030780 -0.995936 255 255 255
0.023532 -0.035337 -0.973804 255 255 255
0.002761 -0.035981 -0.971693 255 255 255
-0.017926 -0.037173 -0.970115 255 255 255
0.145618 -0.036241 -0.989416 255 255 255
-0.039276 -0.039746 -0.970097 255 255 255
-0.058552 -0.041333 -0.969706 255 255 255
-0.419340 -0.048065 -1.002959 255 255 255
0.104832 -0.040924 -0.985705 255 255 255
-0.100893 -0.043867 -0.968860 255 255 255
-0.379158 -0.048930 -0.992711 255 255 255
-0.220072 -0.047504 -0.970961 255 255 255
-0.138112 -0.046316 -0.969137 255 255 255
0.064652 -0.044775 -0.982180 255 255 255
-0.337858 -0.050112 -0.985002 255 255 255
-0.178598 -0.047710 -0.969156 255 255 255
-0.296971 -0.049730 -0.978985 255 255 255
-0.256718 -0.049476 -0.974626 255 255 255
0.024374 -0.048703 -0.979409 255 255 255
0.004095 -0.051051 -0.978586 255 255 255
-0.037434 -0.055000 -0.976959 255 255 255
-0.099611 -0.057845 -0.975150 255 255 255
-0.136742 -0.059819 -0.975239 255 255 255
-0.335787 -0.062525 -0.990154 255 255 255
-0.218330 -0.061746 -0.977957 255 255 255
-0.176578 -0.061233 -0.975795 255 255 255
-0.294900 -0.062898 -0.984748 255 255 255
-0.255046 -0.062695 -0.980707 255 255 255
0.025041 -0.065549 -0.991687 255 255 255
0.005005 -0.066672 -0.989928 255 255 255
-0.035668 -0.072022 -0.989618 255 255 255
-0.057129 -0.072145 -0.987928 255 255 255
-0.035116 -0.084625 -1.002700 255 255 255
0.191602 0.243536 -1.090674 255 255 255
-0.261754 0.221478 -1.091732 255 255 255
0.381674 0.072171 -1.037452 255 255 255
0.420378 0.067725 -1.049831 255 255 255
0.421461 0.059895 -1.046759 255 255 255
0.422503 0.051832 -1.045036 255 255 255
-0.383644 0.032050 -1.002428 255 255 255
-0.423345 0.024513 -1.011098 255 255 255
0.424997 0.016205 -1.042708 255 255 255
-0.462039 0.012503 -1.023462 255 255 255
0.424568 0.009319 -1.045473 255 255 255
-0.462982 0.005055 -1.020000 255 255 255
0.386359 -0.000286 -1.031640 255 255 255
-0.463642 -0.002895 -1.017329 255 255 255
0.022431 -0.019644 -0.969381 255 255 255
-0.259523 -0.020044 -0.967737 255 255 255
-0.059437 -0.025368 -0.965313 255 255 255
-0.461159 -0.037332 -1.015640 255 255 255
-0.459622 -0.046064 -1.017970 255 255 255
-0.457361 -0.053594 -1.020916 255 255 255
-0.057928 -0.055850 -0.976175 255 255 255
-0.417392 -0.058509 -1.006995 255 255 255
-0.376406 -0.060937 -0.997938 255 255 255
0.026298 -0.078202 -1.005442 255 255 255
0.006045 -0.080392 -1.005197 255 255 255
-0.056370 -0.087007 -1.002438 255 255 255
0.150571 -0.169914 -1.041316 255 255 255
-0.302736 -0.192271 -1.029844 255 255 255
