-0.068798 0.069435 -1.026062 255 255 255
-0.142029 0.067088 -0.993709 255 255 255
-0.107221 0.068076 -1.008297 255 255 255
-0.030536 0.070279 -1.043990 255 255 255
0.006330 0.070688 -1.062233 255 255 255
0.042274 0.071253 -1.080303 255 255 255
-0.179837 0.064643 -0.978279 255 255 255
0.080320 0.071561 -1.100591 255 255 255
0.117317 0.071425 -1.120752 255 255 255
-0.218564 0.061342 -0.964457 255 255 255
0.153752 0.069842 -1.140431 255 255 255
-0.253569 0.057397 -0.952665 255 255 255
0.189211 0.068591 -1.160863 255 255 255
0.224406 0.067062 -1.182123 255 255 255
-0.293501 0.053597 -0.940505 255 255 255
0.010098 0.057663 -1.055933 255 255 255
0.046040 0.058231 -1.074448 255 255 255
-0.103827 0.054067 -1.001442 255 255 255
-0.027207 0.055914 -1.037248 255 255 255
0.083711 0.058825 -1.094480 255 255 255
0.260130 0.064824 -1.205576 255 255 255
-0.138575 0.053065 -0.987099 255 255 255
-0.064637 0.054452 -1.018785 255 255 255
0.121050 0.058419 -1.114718 255 255 255
-0.176734 0.050375 -0.971511 255 255 255
0.156811 0.058290 -1.135029 255 255 255
-0.333692 0.048217 -0.929438 255 255 255
0.192985 0.057827 -1.155850 255 255 255
-0.215617 0.047956 -0.957230 255 255 255
0.294088 0.060451 -1.230724 255 255 255
-0.251124 0.045669 -0.946179 255 255 255
0.228383 0.055857 -1.177244 255 255 255
0.263441 0.054917 -1.201529 255 255 255
0.328656 0.057123 -1.254540 255 255 255
-0.291420 0.042063 -0.934272 255 255 255
-0.373246 0.041418 -0.919562 255 255 255
0.296089 0.051034 -1.226542 255 255 255
0.049953 0.043253 -1.069379 255 255 255
0.087604 0.043508 -1.089377 255 255 255
0.013548 0.041891 -1.050276 255 255 255
-0.023771 0.040815 -1.032320 255 255 255
0.124681 0.043789 -1.109844 255 255 255
0.330996 0.049345 -1.251326 255 255 255
0.160130 0.043999 -1.130326 255 255 255
0.196504 0.044606 -1.151363 255 255 255
-0.331712 0.036084 -0.923235 255 255 255
-0.061091 0.038889 -1.013585 255 255 255
-0.099975 0.038157 -0.996143 255 255 255
-0.413871 0.034870 -0.911766 255 255 255
0.231625 0.044097 -1.173506 255 255 255
-0.135345 0.036941 -0.981408 255 255 255
-0.173840 0.035471 -0.966192 255 255 255
0.266092 0.043053 -1.198127 255 255 255
-0.212791 0.033287 -0.951326 255 255 255
0.361907 0.043215 -1.278402 255 255 255
-0.248481 0.031642 -0.940394 255 255 255
0.299460 0.040151 -1.223819 255 255 255
-0.371460 0.030338 -0.913563 255 255 255
0.332881 0.039197 -1.249238 255 255 255
-0.289265 0.028404 -0.928401 255 255 255
0.089586 0.029887 -1.086159 255 255 255
-0.412974 0.025134 -0.906770 255 255 255
0.198714 0.031194 -1.148417 255 255 255
0.234180 0.031286 -1.171099 255 255 255
0.162948 0.029754 -1.127272 255 255 255
0.268376 0.031495 -1.195980 255 255 255
0.052766 0.027595 -1.065892 255 255 255
-0.329432 0.023966 -0.918700 255 255 255
0.126707 0.028080 -1.106328 255 255 255
0.301078 0.030959 -1.221803 255 255 255
0.015844 0.025634 -1.046640 255 255 255
0.334478 0.030042 -1.248042 255 255 255
-0.021552 0.024550 -1.028660 255 255 255
-0.058927 0.023224 -1.010247 255 255 255
-0.098354 0.022239 -0.992364 255 255 255
-0.133284 0.020795 -0.977865 255 255 255
0.365151 0.026560 -1.275431 255 255 255
-0.369839 0.018312 -0.908880 255 255 255
-0.171519 0.019250 -0.962341 255 255 255
-0.211050 0.017366 -0.947441 255 255 255
-0.454817 0.016204 -0.903942 255 255 255
-0.246926 0.016168 -0.936405 255 255 255
0.269966 0.019629 -1.194922 255 255 255
0.335311 0.020685 -1.246899 255 255 255
0.235484 0.018820 -1.169999 255 255 255
-0.411714 0.014890 -0.903486 255 255 255
0.303030 0.019627 -1.220955 255 255 255
0.200611 0.018070 -1.147356 255 255 255
-0.287550 0.014529 -0.924931 255 255 255
0.164210 0.015620 -1.125673 255 255 255
0.366007 0.017861 -1.273904 255 255 255
0.128101 0.013879 -1.104947 255 255 255
-0.328027 0.011490 -0.915290 255 255 255
0.091445 0.012851 -1.084172 255 255 255
0.054252 0.011156 -1.064137 255 255 255
0.017211 0.009682 -1.044869 255 255 255
0.335606 0.011287 -1.246298 255 255 255
-0.454537 0.008230 -0.900927 255 255 255
-0.020139 0.008512 -1.026752 255 255 255
-0.058362 0.007503 -1.008242 255 255 255
0.303629 0.008769 -1.220443 255 255 255
0.270336 0.008199 -1.194619 255 255 255
-0.368899 0.006494 -0.906161 255 255 255
0.366589 0.008241 -1.273806 255 255 255
-0.096289 0.005695 -0.990970 255 255 255
0.236150 0.006068 -1.170273 255 255 255
-0.131920 0.004547 -0.976056 255 255 255
-0.170168 0.004019 -0.960561 255 255 255
-0.410763 0.003738 -0.901441 255 255 255
0.200304 0.003669 -1.146737 255 255 255
-0.209494 0.002839 -0.945820 255 255 255
-0.245685 0.001419 -0.934515 255 255 255
0.165371 0.001461 -1.126137 255 255 255
0.336060 0.001261 -1.246518 255 255 255
0.304102 0.000091 -1.221059 255 255 255
0.128277 -0.000076 -1.104714 255 255 255
-0.286170 -0.000518 -0.923084 255 255 255
-0.454097 -0.000770 -0.898812 255 255 255
0.365949 -0.001085 -1.274547 255 255 255
0.092002 -0.001990 -1.084059 255 255 255
-0.327119 -0.002212 -0.913435 255 255 255
0.269883 -0.003438 -1.194939 255 255 255
0.055328 -0.004590 -1.064329 255 255 255
-0.368158 -0.004660 -0.905029 255 255 255
0.235854 -0.006718 -1.171495 255 255 255
0.018021 -0.006358 -1.044953 255 255 255
0.335241 -0.008079 -1.246517 255 255 255
-0.409918 -0.006650 -0.900333 255 255 255
-0.019510 -0.007925 -1.026692 255 255 255
0.200803 -0.010258 -1.148966 255 255 255
0.303115 -0.011098 -1.221815 255 255 255
-0.056717 -0.009407 -1.008799 255 255 255
-0.453373 -0.009281 -0.897860 255 255 255
-0.096232 -0.010717 -0.990940 255 255 255
0.164620 -0.012798 -1.127473 255 255 255
-0.131149 -0.012052 -0.976395 255 255 255
-0.169611 -0.012184 -0.960444 255 255 255
0.268401 -0.015138 -1.196933 255 255 255
0.333852 -0.016354 -1.248543 255 255 255
0.127691 -0.015693 -1.106263 255 255 255
-0.208900 -0.014375 -0.946035 255 255 255
-0.244872 -0.014578 -0.934374 255 255 255
-0.285189 -0.014504 -0.923220 255 255 255
0.234803 -0.018616 -1.174283 255 255 255
0.091387 -0.018784 -1.085639 255 255 255
-0.367481 -0.016057 -0.904964 255 255 255
0.301429 -0.022111 -1.225014 255 255 255
-0.326142 -0.017535 -0.913520 255 255 255
-0.409063 -0.017593 -0.900263 255 255 255
0.054922 -0.021484 -1.066038 255 255 255
0.198436 -0.023076 -1.151852 255 255 255
-0.453170 -0.018070 -0.897955 255 255 255
0.017741 -0.023214 -1.046887 255 255 255
0.265843 -0.027009 -1.200313 255 255 255
-0.000629 -0.023681 -1.037480 255 255 255
0.163393 -0.026250 -1.130753 255 255 255
-0.019552 -0.024689 -1.028227 255 255 255
-0.038555 -0.024966 -1.019217 255 255 255
-0.057199 -0.026333 -1.010694 255 255 255
0.126281 -0.030196 -1.108841 255 255 255
0.232284 -0.031814 -1.179136 255 255 255
-0.096191 -0.027141 -0.993033 255 255 255
-0.131863 -0.028387 -0.978277 255 255 255
-0.169658 -0.028494 -0.962467 255 255 255
-0.452202 -0.026689 -0.899116 255 255 255
-0.209348 -0.029410 -0.948125 255 255 255
0.090111 -0.034466 -1.089130 255 255 255
0.196378 -0.036254 -1.156985 255 255 255
-0.408528 -0.028478 -0.901208 255 255 255
-0.285022 -0.029235 -0.925053 255 255 255
-0.244907 -0.029855 -0.936588 255 255 255
-0.366963 -0.028946 -0.906501 255 255 255
-0.325913 -0.031003 -0.915519 255 255 255
0.053753 -0.037160 -1.069900 255 255 255
0.160880 -0.040235 -1.135815 255 255 255
0.016765 -0.039278 -1.050846 255 255 255
-0.001833 -0.039227 -1.040711 255 255 255
-0.020543 -0.039766 -1.031067 255 255 255
-0.451868 -0.035622 -0.901605 255 255 255
0.124740 -0.044344 -1.113286 255 255 255
-0.040524 -0.041674 -1.022558 255 255 255
-0.058404 -0.042653 -1.014552 255 255 255
-0.408456 -0.038623 -0.903440 255 255 255
0.087995 -0.047742 -1.093640 255 255 255
-0.097662 -0.043838 -0.997017 255 255 255
-0.366940 -0.040560 -0.909658 255 255 255
-0.209862 -0.043747 -0.951970 255 255 255
-0.132584 -0.045138 -0.982558 255 255 255
-0.325390 -0.042913 -0.918653 255 255 255
-0.170412 -0.045260 -0.966576 255 255 255
-0.284843 -0.043702 -0.929125 255 255 255
0.051760 -0.050328 -1.074431 255 255 255
-0.245542 -0.044645 -0.940899 255 255 255
0.015140 -0.053016 -1.055876 255 255 255
-0.003516 -0.054758 -1.047043 255 255 255
-0.408436 -0.049357 -0.907619 255 255 255
-0.041783 -0.057385 -1.029130 255 255 255
-0.060641 -0.057551 -1.020315 255 255 255
-0.366683 -0.052926 -0.915239 255 255 255
-0.099211 -0.058201 -1.002906 255 255 255
-0.133962 -0.059022 -0.988319 255 255 255
-0.325747 -0.055675 -0.923880 255 255 255
-0.211274 -0.058407 -0.958693 255 255 255
-0.171410 -0.059188 -0.973091 255 255 255
-0.285467 -0.057244 -0.934908 255 255 255
-0.246657 -0.058232 -0.946807 255 255 255
0.010602 -0.070384 -1.067067 255 255 255
-0.007455 -0.070864 -1.057514 255 255 255
-0.064833 -0.074375 -1.031055 255 255 255
-0.045448 -0.074989 -1.041065 255 255 255
0.006089 -0.083527 -1.080036 255 255 255
-0.050338 -0.088065 -1.053114 255 255 255
-0.070147 -0.089777 -1.044451 255 255 255
0.364314 -0.008109 -1.276749 255 255 255
0.359850 0.051123 -1.281099 255 255 255
-0.455015 0.023619 -0.907594 255 255 255
0.133566 0.236518 -1.234284 255 255 255
-0.290505 0.228205 -1.055651 255 255 255
0.105533 -0.180332 -1.160689 255 255 255
-0.451077 -0.043382 -0.904997 255 255 255
-0.313594 -0.188626 -0.970429 255 255 255
0.363393 0.035050 -1.276931 255 255 255
