0.058168 0.075426 -0.944159 255 255 255
0.100907 0.075152 -0.948204 255 255 255
0.018216 0.075406 -0.941356 255 255 255
0.142616 0.074444 -0.952554 255 255 255
-0.022639 0.075573 -0.938765 255 255 255
-0.064661 0.075313 -0.936991 255 255 255
0.183605 0.072276 -0.956731 255 255 255
-0.106787 0.074550 -0.935436 255 255 255
0.223999 0.070485 -0.961939 255 255 255
-0.144366 0.074101 -0.935445 255 255 255
0.264504 0.068474 -0.967880 255 255 255
-0.185035 0.072246 -0.935802 255 255 255
0.306300 0.065727 -0.975664 255 255 255
-0.225949 0.069505 -0.938113 255 255 255
0.101489 0.062400 -0.941421 255 255 255
0.059185 0.062373 -0.937452 255 255 255
0.143536 0.061432 -0.945668 255 255 255
0.184167 0.060753 -0.950620 255 255 255
0.019071 0.062352 -0.934260 255 255 255
0.225384 0.059737 -0.955888 255 255 255
-0.022371 0.061180 -0.931440 255 255 255
0.266126 0.057265 -0.961920 255 255 255
-0.262675 0.066090 -0.940803 255 255 255
0.307644 0.055802 -0.970760 255 255 255
-0.063843 0.060291 -0.928863 255 255 255
-0.106490 0.060522 -0.927960 255 255 255
-0.143922 0.060057 -0.928152 255 255 255
0.347182 0.051428 -0.981181 255 255 255
-0.304088 0.062969 -0.944891 255 255 255
0.388744 0.049217 -0.990519 255 255 255
-0.184981 0.057981 -0.928505 255 255 255
0.226714 0.046542 -0.950446 255 255 255
-0.226199 0.056153 -0.930379 255 255 255
0.267495 0.045517 -0.957299 255 255 255
0.185215 0.046481 -0.945105 255 255 255
0.144783 0.046805 -0.939900 255 255 255
0.308598 0.043956 -0.966653 255 255 255
0.102877 0.047086 -0.935350 255 255 255
0.060608 0.047396 -0.931406 255 255 255
-0.345349 0.058238 -0.950131 255 255 255
0.019830 0.046582 -0.927887 255 255 255
-0.263080 0.054411 -0.933901 255 255 255
0.349073 0.040551 -0.977440 255 255 255
0.389524 0.039091 -0.987934 255 255 255
-0.021309 0.046073 -0.925750 255 255 255
-0.062797 0.044728 -0.922854 255 255 255
-0.304727 0.051466 -0.938398 255 255 255
-0.105203 0.044610 -0.921755 255 255 255
-0.143371 0.043947 -0.921798 255 255 255
0.309709 0.032419 -0.963832 255 255 255
0.268746 0.032722 -0.954191 255 255 255
0.349662 0.031376 -0.975028 255 255 255
0.227435 0.033166 -0.946937 255 255 255
0.390411 0.029954 -0.986279 255 255 255
-0.184563 0.043091 -0.922608 255 255 255
0.186425 0.032270 -0.941267 255 255 255
0.103267 0.033492 -0.931695 255 255 255
0.145077 0.031142 -0.935978 255 255 255
0.428989 0.026016 -0.999526 255 255 255
-0.226064 0.041506 -0.923938 255 255 255
-0.346073 0.046129 -0.943752 255 255 255
0.061627 0.031758 -0.927230 255 255 255
-0.263066 0.040423 -0.927630 255 255 255
0.020307 0.030355 -0.923777 255 255 255
0.390612 0.020615 -0.984963 255 255 255
-0.020898 0.029840 -0.921657 255 255 255
0.350973 0.020064 -0.973531 255 255 255
0.310613 0.020581 -0.962303 255 255 255
0.269334 0.020302 -0.952679 255 255 255
0.429077 0.017340 -0.997847 255 255 255
-0.305176 0.037833 -0.932234 255 255 255
-0.062314 0.029106 -0.919056 255 255 255
0.228597 0.020070 -0.945269 255 255 255
-0.386391 0.041010 -0.950119 255 255 255
-0.105394 0.028733 -0.917750 255 255 255
0.186768 0.018178 -0.939319 255 255 255
-0.143049 0.027852 -0.917839 255 255 255
0.390539 0.011250 -0.984352 255 255 255
0.145631 0.016978 -0.934219 255 255 255
-0.345871 0.034028 -0.938761 255 255 255
-0.184132 0.026903 -0.918293 255 255 255
0.103963 0.016509 -0.929237 255 255 255
0.351192 0.009240 -0.972900 255 255 255
-0.427225 0.036456 -0.959806 255 255 255
0.310688 0.009189 -0.961941 255 255 255
0.062083 0.015370 -0.925149 255 255 255
-0.226182 0.025639 -0.919768 255 255 255
0.269886 0.007588 -0.952739 255 255 255
0.020650 0.014457 -0.921735 255 255 255
-0.263382 0.025006 -0.923420 255 255 255
0.390913 0.001261 -0.984428 255 255 255
0.227875 0.005733 -0.944881 255 255 255
-0.386853 0.029013 -0.945253 255 255 255
-0.020558 0.013846 -0.919481 255 255 255
0.351743 0.000589 -0.973313 255 255 255
-0.305116 0.024002 -0.928412 255 255 255
-0.062780 0.013439 -0.917080 255 255 255
0.187825 0.004058 -0.939359 255 255 255
0.310238 -0.002396 -0.962480 255 255 255
0.145511 0.003081 -0.933988 255 255 255
-0.104267 0.012234 -0.915762 255 255 255
-0.427464 0.026234 -0.956376 255 255 255
-0.346067 0.021589 -0.935156 255 255 255
0.390034 -0.008039 -0.984755 255 255 255
-0.142724 0.011648 -0.915734 255 255 255
0.104232 0.001723 -0.928972 255 255 255
0.269918 -0.005151 -0.954037 255 255 255
-0.183779 0.011722 -0.916158 255 255 255
0.350988 -0.010544 -0.974426 255 255 255
0.062921 -0.000315 -0.924946 255 255 255
-0.225582 0.011163 -0.917732 255 255 255
0.229001 -0.008146 -0.946794 255 255 255
-0.387184 0.017241 -0.942409 255 255 255
0.021202 -0.001528 -0.921547 255 255 255
-0.263171 0.010312 -0.921225 255 255 255
0.309486 -0.014038 -0.964938 255 255 255
0.187458 -0.010132 -0.940925 255 255 255
-0.020237 -0.002526 -0.919269 255 255 255
-0.427524 0.015119 -0.954166 255 255 255
-0.304781 0.009014 -0.926245 255 255 255
0.269863 -0.016985 -0.957075 255 255 255
-0.061287 -0.003423 -0.917005 255 255 255
0.145353 -0.012462 -0.935670 255 255 255
-0.346129 0.007947 -0.933123 255 255 255
-0.104456 -0.004102 -0.915751 255 255 255
0.104045 -0.014994 -0.930705 255 255 255
0.227761 -0.020877 -0.950399 255 255 255
-0.468419 0.011265 -0.968391 255 255 255
-0.142122 -0.004882 -0.915793 255 255 255
0.308277 -0.025834 -0.969049 255 255 255
-0.387106 0.006126 -0.941139 255 255 255
-0.183552 -0.004415 -0.915893 255 255 255
0.062980 -0.017137 -0.926696 255 255 255
0.187420 -0.023519 -0.944451 255 255 255
-0.427318 0.004763 -0.952870 255 255 255
-0.225188 -0.005978 -0.917704 255 255 255
0.269249 -0.030114 -0.962544 255 255 255
0.144858 -0.026898 -0.938595 255 255 255
-0.304026 -0.004931 -0.926049 255 255 255
-0.019930 -0.019223 -0.920698 255 255 255
-0.468240 0.002788 -0.967273 255 255 255
0.227674 -0.033994 -0.955945 255 255 255
0.104002 -0.030610 -0.934413 255 255 255
-0.386660 -0.005229 -0.940861 255 255 255
-0.345409 -0.007318 -0.932864 255 255 255
-0.103850 -0.020457 -0.917704 255 255 255
0.186882 -0.037433 -0.950109 255 255 255
-0.426703 -0.006141 -0.952521 255 255 255
-0.142288 -0.021144 -0.917803 255 255 255
0.063186 -0.032753 -0.930699 255 255 255
-0.183055 -0.020654 -0.917766 255 255 255
-0.468126 -0.005966 -0.967314 255 255 255
0.144970 -0.040989 -0.943302 255 255 255
-0.225018 -0.020943 -0.919820 255 255 255
0.000899 -0.033992 -0.925326 255 255 255
-0.019976 -0.034254 -0.923625 255 255 255
-0.262108 -0.020838 -0.922874 255 255 255
-0.303372 -0.019596 -0.927680 255 255 255
0.103619 -0.043829 -0.939361 255 255 255
-0.041610 -0.035827 -0.923470 255 255 255
-0.385774 -0.018065 -0.942113 255 255 255
-0.344624 -0.020735 -0.934643 255 255 255
-0.425994 -0.016986 -0.953212 255 255 255
0.062923 -0.045884 -0.935629 255 255 255
-0.103908 -0.037082 -0.921922 255 255 255
-0.141550 -0.037836 -0.922022 255 255 255
0.022138 -0.048033 -0.932631 255 255 255
-0.182418 -0.037358 -0.921823 255 255 255
-0.224225 -0.035220 -0.923555 255 255 255
0.001589 -0.049516 -0.931675 255 255 255
-0.261260 -0.035560 -0.927114 255 255 255
-0.301853 -0.034011 -0.931376 255 255 255
-0.425209 -0.027087 -0.955242 255 255 255
-0.384702 -0.029630 -0.945014 255 255 255
-0.343109 -0.032603 -0.937331 255 255 255
-0.040470 -0.051512 -0.929942 255 255 255
-0.061173 -0.051365 -0.929095 255 255 255
-0.103281 -0.051387 -0.927918 255 255 255
-0.140807 -0.051666 -0.927828 255 255 255
-0.181040 -0.051245 -0.928210 255 255 255
-0.223163 -0.049828 -0.930326 255 255 255
0.001769 -0.065513 -0.942881 255 255 255
-0.260216 -0.049088 -0.933012 255 255 255
-0.300409 -0.047501 -0.936969 255 255 255
-0.341620 -0.045318 -0.942295 255 255 255
-0.039500 -0.069038 -0.942353 255 255 255
-0.262830 -0.005668 -0.921073 255 255 255
0.203590 0.239345 -1.049418 255 255 255
0.347083 0.060834 -0.985736 255 255 255
0.387939 0.057008 -0.994286 255 255 255
0.426639 0.050539 -1.006647 255 255 255
0.427370 0.042640 -1.003412 255 255 255
0.428079 0.034495 -1.001534 255 255 255
0.429459 0.007754 -0.997582 255 255 255
0.429039 -0.001527 -0.998540 255 255 255
-0.385590 0.052072 -0.956268 255 255 255
0.428303 -0.008510 -1.001255 255 255 255
-0.426015 0.046164 -0.964689 255 255 255
0.389439 -0.016266 -0.987183 255 255 255
-0.465570 0.035569 -0.976702 255 255 255
0.350530 -0.021504 -0.978059 255 255 255
-0.466887 0.028184 -0.973306 255 255 255
-0.467896 0.020233 -0.970469 255 255 255
0.021457 -0.018319 -0.923458 255 255 255
0.000981 -0.018504 -0.921929 255 255 255
-0.040847 -0.019198 -0.919669 255 255 255
-0.061249 -0.020271 -0.918969 255 255 255
0.021873 -0.034324 -0.927463 255 255 255
-0.466912 -0.014551 -0.968034 255 255 255
-0.061114 -0.036521 -0.922961 255 255 255
-0.465784 -0.023476 -0.970253 255 255 255
-0.463902 -0.031245 -0.973255 255 255 255
-0.423741 -0.037775 -0.959103 255 255 255
-0.382506 -0.041957 -0.950081 255 255 255
0.022026 -0.065299 -0.944727 255 255 255
-0.061142 -0.068101 -0.940616 255 255 255
0.022679 -0.078322 -0.958460 255 255 255
-0.039547 -0.082007 -0.955372 255 255 255
-0.061095 -0.083390 -0.955032 255 255 255
0.143875 -0.175234 -0.995256 255 255 255
-0.314245 -0.177257 -0.981337 255 255 255
-0.254699 0.237275 -1.048503 255 255 255
